-56.37329865 -742.46319580 36.65390015 2.000000 2.000000
-38.01660156 -731.68231201 42.16949844 2.000000 2.000000
-43.18669891 -731.11761475 40.61970139 2.000000 2.000000
-28.06430054 -725.13507080 46.93199921 2.000000 2.000000
-77.92140198 -730.31451416 26.58819962 2.000000 2.000000
-35.99499893 -726.96447754 44.29769897 2.000000 2.000000
-80.17440033 -721.45837402 24.48909950 2.000000 2.000000
-35.87490082 -727.81341553 44.19820023 2.000000 2.000000
-68.86799622 -757.39501953 27.93070030 2.000000 2.000000
-78.50260162 -723.26147461 26.72069931 2.000000 2.000000
-72.31379700 -731.95062256 31.46109962 2.000000 2.000000
-76.12100220 -764.33428955 22.43009949 2.000000 2.000000
-64.41239929 -725.53851318 39.35670090 2.000000 2.000000
-77.70919800 -735.74682617 30.25079918 2.000000 2.000000
-54.03649902 -749.10180664 36.92229843 2.000000 2.000000
-38.63050079 -728.41967773 42.95840073 2.000000 2.000000
-56.29019928 -749.47369385 34.51620102 2.000000 2.000000
-72.56259918 -758.45410156 26.95339966 2.000000 2.000000
-46.46310043 -740.06182861 2.44580007 1.000000 1.000000
-70.08619690 -727.63018799 32.88729858 2.000000 2.000000
-29.64649963 -722.93841553 46.75170135 2.000000 2.000000
-70.50440216 -730.66778564 32.70209885 2.000000 2.000000
-37.21910095 -727.27801514 43.82799911 2.000000 2.000000
-70.80159760 -738.68237305 32.74240112 2.000000 2.000000
-78.94010162 -728.17962646 25.93429947 2.000000 2.000000
-58.47819901 -747.59698486 35.28290176 2.000000 2.000000
-47.38000107 -755.89910889 38.30139923 2.000000 2.000000
-35.89780045 -725.41107178 44.69929886 2.000000 2.000000
-46.51839828 -740.10339355 4.33339977 1.000000 1.000000
-57.11610031 -746.60327148 34.84560013 2.000000 2.000000
-71.52400208 -752.32092285 29.64189911 2.000000 2.000000
-77.97429657 -763.84558105 23.21269989 2.000000 2.000000
-55.24119949 -746.61901855 35.74029922 2.000000 2.000000
-81.01110077 -719.41552734 23.52269936 2.000000 2.000000
-69.33599854 -755.56457520 28.51280022 2.000000 2.000000
-35.34740067 -730.96807861 43.37739944 2.000000 2.000000
-66.07460022 -753.80609131 29.58230019 2.000000 2.000000
-80.81990051 -762.91778564 24.76899910 2.000000 2.000000
-66.97219849 -756.12988281 28.74970055 2.000000 2.000000
-64.24210358 -746.41778564 35.82149887 2.000000 2.000000
-79.83730316 -761.68682861 25.39419937 2.000000 2.000000
-61.53799820 -739.38317871 33.75619888 2.000000 2.000000
-66.46109772 -757.30737305 28.43709946 2.000000 2.000000
-79.93150330 -729.77618408 25.00900078 2.000000 2.000000
-72.41149902 -761.50878906 25.11630058 2.000000 2.000000
-57.67739868 -744.73602295 33.80039978 2.000000 2.000000
-76.28559875 -758.66522217 26.80620003 2.000000 2.000000
-68.34120178 -752.06878662 29.74410057 2.000000 2.000000
-68.34559631 -732.04211426 33.72499847 2.000000 2.000000
-78.31289673 -763.27209473 24.00679970 2.000000 2.000000
-45.01369858 -734.09228516 38.96730042 2.000000 2.000000
-74.43489838 -763.24938965 23.52440071 2.000000 2.000000
-54.08760071 -749.36828613 36.68320084 2.000000 2.000000
-70.30899811 -755.80639648 28.49799919 2.000000 2.000000
-69.98449707 -731.23327637 32.96020126 2.000000 2.000000
-56.01470184 -741.28997803 25.84860039 1.000000 1.000000
-73.75180054 -735.63928223 31.57410049 2.000000 2.000000
-75.96659851 -727.17248535 29.20310020 2.000000 2.000000
-78.05639648 -739.54522705 30.27899933 2.000000 2.000000
-72.74289703 -739.54248047 31.99160004 2.000000 2.000000
-71.77709961 -752.69982910 29.60289955 2.000000 2.000000
-72.49330139 -763.09387207 23.86359978 2.000000 2.000000
-62.27249908 -747.89172363 29.15489960 1.000000 1.000000
-47.71670151 -741.49127197 9.04710007 1.000000 1.000000
-45.69960022 -740.73150635 5.52080011 1.000000 1.000000
-77.17199707 -758.26831055 26.94809914 2.000000 2.000000
-64.94609833 -746.90887451 35.52099991 2.000000 2.000000
-65.27600098 -736.88812256 33.42440033 2.000000 2.000000
-67.25990295 -753.04248047 29.40169907 2.000000 2.000000
-71.47119904 -735.95458984 32.20719910 2.000000 2.000000
-54.80070114 -749.45410156 36.13430023 2.000000 2.000000
-70.54470062 -754.78527832 28.70109940 2.000000 2.000000
-54.26570129 -748.49182129 36.85020065 2.000000 2.000000
-53.21440125 -742.03918457 40.65859985 2.000000 2.000000
-65.99620056 -731.96478271 35.87730026 2.000000 2.000000
-72.14260101 -758.28698730 27.08279991 2.000000 2.000000
-54.97549820 -743.77069092 37.61660004 2.000000 2.000000
-71.66280365 -753.20971680 29.23509979 2.000000 2.000000
-45.51739883 -735.23907471 38.55130005 2.000000 2.000000
-80.16139984 -726.97991943 24.70929909 2.000000 2.000000
-74.95339966 -763.14538574 23.56329918 2.000000 2.000000
-52.22420120 -753.01177979 36.95920181 2.000000 2.000000
-68.80670166 -754.57757568 29.02989960 2.000000 2.000000
-72.69719696 -758.32141113 27.03230095 2.000000 2.000000
-29.99640083 -726.39581299 46.38809967 2.000000 2.000000
-36.22510147 -727.31042480 44.14049911 2.000000 2.000000
-66.81710052 -755.53881836 29.11569977 2.000000 2.000000
-48.61199951 -755.22692871 38.06079865 2.000000 2.000000
-72.41600037 -752.77197266 29.14739990 2.000000 2.000000
-71.15470123 -755.49768066 28.38920021 2.000000 2.000000
-76.55829620 -759.62908936 26.25340080 2.000000 2.000000
-76.17680359 -764.91967773 21.76040077 2.000000 2.000000
-68.19020081 -739.70001221 32.87990189 2.000000 2.000000
-33.01620102 -726.06542969 45.31349945 2.000000 2.000000
-74.51249695 -731.00268555 29.60880089 2.000000 2.000000
-74.42140198 -757.63732910 27.46759987 2.000000 2.000000
-69.36419678 -734.75659180 33.05789948 2.000000 2.000000
-65.67890167 -727.66748047 38.19279861 2.000000 2.000000
-56.18939972 -744.73211670 34.42779922 2.000000 2.000000
-66.26930237 -754.79797363 29.42779922 2.000000 2.000000
-71.69460297 -736.92340088 32.67419815 2.000000 2.000000
-64.57790375 -742.13488770 34.47060013 2.000000 2.000000
-83.22380066 -768.12237549 19.65299988 2.000000 2.000000
-63.73139954 -733.67779541 36.46170044 2.000000 2.000000
-76.61740112 -759.36322021 26.43210030 2.000000 2.000000
-41.38930130 -736.78009033 39.43040085 2.000000 2.000000
-49.69770050 -741.23742676 15.06200027 1.000000 1.000000
-73.92179871 -735.65222168 31.51969910 2.000000 2.000000
-74.56970215 -758.93347168 26.74510002 2.000000 2.000000
-72.33529663 -737.53680420 32.54109955 2.000000 2.000000
-83.06330109 -766.81610107 20.77199936 2.000000 2.000000
-26.70879936 -725.10491943 47.39210129 2.000000 2.000000
-77.65280151 -765.49792480 21.21209908 2.000000 2.000000
-75.11859894 -760.75378418 25.61319923 2.000000 2.000000
-63.80870056 -730.68438721 37.89939880 2.000000 2.000000
-39.87490082 -729.01428223 42.16260147 2.000000 2.000000
-71.50520325 -752.48529053 29.57029915 2.000000 2.000000
-71.83550262 -739.57849121 32.31409836 2.000000 2.000000
-70.44909668 -729.79412842 32.78189850 2.000000 2.000000
-71.01580048 -755.03308105 28.54770088 2.000000 2.000000
-71.04589844 -730.26202393 32.33679962 2.000000 2.000000
-78.43859863 -760.52410889 25.77479935 2.000000 2.000000
-72.99579620 -761.71881104 24.89089966 2.000000 2.000000
-76.56369781 -725.47991943 28.72369957 2.000000 2.000000
-70.87100220 -730.63757324 32.43510056 2.000000 2.000000
-62.68239975 -732.58782959 37.38639832 2.000000 2.000000
-72.07309723 -754.66687012 28.63269997 2.000000 2.000000
-69.85679626 -729.74127197 33.05889893 2.000000 2.000000
-52.17530060 -752.22271729 37.33549881 2.000000 2.000000
-65.83670044 -731.83502197 36.18190002 2.000000 2.000000
-64.70320129 -730.86376953 37.49459839 2.000000 2.000000
-75.06199646 -726.91687012 29.95059967 2.000000 2.000000
-65.34269714 -734.34820557 35.09159851 2.000000 2.000000
-29.58950043 -726.74548340 46.49110031 2.000000 2.000000
-75.18779755 -729.38598633 29.45540047 2.000000 2.000000
-47.57369995 -755.88909912 38.28829956 2.000000 2.000000
-54.94089890 -749.90838623 35.95180130 2.000000 2.000000
-75.57890320 -728.55322266 29.42110062 2.000000 2.000000
-44.70069885 -729.15777588 41.02330017 2.000000 2.000000
-66.99189758 -758.19018555 27.88240051 2.000000 2.000000
-71.02809906 -733.59698486 32.42910004 2.000000 2.000000
-66.66629791 -733.21661377 34.38199997 2.000000 2.000000
-39.63010025 -731.82287598 41.64770126 2.000000 2.000000
-65.19219971 -755.65447998 29.32869911 2.000000 2.000000
-45.57509995 -734.28430176 38.73469925 2.000000 2.000000
-67.75849915 -755.76751709 28.78750038 2.000000 2.000000
-52.58509827 -741.37530518 16.97579956 1.000000 1.000000
-75.11889648 -726.36602783 29.61100006 2.000000 2.000000
-70.48400116 -733.03948975 32.58580017 2.000000 2.000000
-68.71659851 -759.46881104 27.00060081 2.000000 2.000000
-72.47290039 -753.43438721 29.21430016 2.000000 2.000000
-77.86489868 -763.05108643 24.08029938 2.000000 2.000000
-78.34259796 -727.48950195 26.60359955 2.000000 2.000000
-76.60289764 -764.55578613 22.24880028 2.000000 2.000000
-69.66100311 -761.27551270 25.71579933 2.000000 2.000000
-74.36660004 -757.91381836 27.30130005 2.000000 2.000000
-75.78659821 -756.65667725 27.99040031 2.000000 2.000000
-42.23070145 -736.12951660 39.53779984 2.000000 2.000000
-64.88870239 -734.59649658 35.33390045 2.000000 2.000000
-40.51950073 -727.25250244 41.82170105 2.000000 2.000000
-70.06340027 -732.97558594 32.64870071 2.000000 2.000000
-76.43930054 -759.96051025 26.05130005 2.000000 2.000000
-76.79340363 -761.59667969 25.06469917 2.000000 2.000000
-63.55950165 -732.08502197 37.27159882 2.000000 2.000000
-64.55879974 -726.77307129 39.02859879 2.000000 2.000000
-52.36019897 -753.76312256 36.38359833 2.000000 2.000000
-64.75679779 -745.51177979 35.58779907 2.000000 2.000000
-67.98750305 -728.30950928 36.13199997 2.000000 2.000000
-77.98449707 -765.95202637 20.14739990 2.000000 2.000000
-47.59759903 -732.59399414 39.03359985 2.000000 2.000000
-68.99120331 -760.44787598 26.47660065 2.000000 2.000000
-52.90769958 -749.87829590 37.84059906 2.000000 2.000000
-76.91290283 -726.94592285 28.17749977 2.000000 2.000000
-74.21659851 -722.75781250 29.77140045 2.000000 2.000000
-54.85390091 -742.48272705 39.03540039 2.000000 2.000000
-55.34030151 -741.81121826 38.97980118 2.000000 2.000000
-47.45679855 -736.98297119 37.00650024 2.000000 2.000000
-65.75209808 -726.05377197 38.70399857 2.000000 2.000000
-56.48070145 -743.28100586 35.85279846 2.000000 2.000000
-55.08010101 -748.54467773 35.86970139 2.000000 2.000000
-64.77410126 -744.06591797 35.16030121 2.000000 2.000000
-43.02080154 -732.19592285 40.34949875 2.000000 2.000000
-74.22429657 -763.68450928 23.24340057 2.000000 2.000000
-77.47750092 -765.19000244 21.40099907 2.000000 2.000000
-75.04090118 -760.08197021 26.13139915 2.000000 2.000000
-81.69960022 -766.72210693 20.70439911 2.000000 2.000000
-46.13180161 -740.96020508 4.91249990 1.000000 1.000000
-48.85049820 -734.55639648 37.35200119 2.000000 2.000000
-52.73939896 -753.50988770 36.17459869 2.000000 2.000000
-76.36049652 -760.04821777 25.98539925 2.000000 2.000000
-68.49669647 -752.34332275 29.66710091 2.000000 2.000000
-25.29969978 -723.03521729 47.64920044 2.000000 2.000000
-52.06900024 -753.16351318 36.98199844 2.000000 2.000000
-72.57209778 -732.41271973 31.03779984 2.000000 2.000000
-70.02890015 -727.63629150 32.98429871 2.000000 2.000000
-71.54869843 -755.95898438 28.40870094 2.000000 2.000000
-43.98600006 -729.37762451 41.15950012 2.000000 2.000000
-51.43090057 -748.48297119 38.36660004 2.000000 2.000000
-66.23519897 -731.24078369 35.99919891 2.000000 2.000000
-82.74530029 -720.73492432 22.33769989 2.000000 2.000000
-69.43759918 -757.65722656 27.90730095 2.000000 2.000000
-60.35829926 -738.56207275 35.82320023 2.000000 2.000000
-27.21069908 -724.28057861 47.30580139 2.000000 2.000000
-74.44409943 -757.70977783 27.37969971 2.000000 2.000000
-59.00960159 -738.75018311 38.04090118 2.000000 2.000000
-69.65630341 -732.21582031 32.78509903 2.000000 2.000000
-79.93820190 -724.44012451 25.09269905 2.000000 2.000000
-34.00040054 -726.61169434 44.99409866 2.000000 2.000000
-65.96810150 -731.08911133 36.19630051 2.000000 2.000000
-70.56060028 -731.24151611 32.55319977 2.000000 2.000000
-63.24380112 -737.79931641 32.85070038 1.000000 1.000000
-82.59410095 -766.82720947 20.78599930 2.000000 2.000000
-71.00370026 -760.14630127 26.13879967 2.000000 2.000000
-63.77590179 -741.45001221 34.61230087 2.000000 2.000000
-74.29679871 -755.26477051 28.54859924 2.000000 2.000000
-57.31230164 -743.20251465 33.75730133 2.000000 2.000000
-58.84629822 -739.72442627 36.21889877 2.000000 2.000000
-78.32620239 -723.03662109 26.83300018 2.000000 2.000000
-56.52949905 -742.27258301 36.67060089 2.000000 2.000000
-47.79790115 -754.25787354 38.58689880 2.000000 2.000000
-82.03050232 -721.12420654 22.68589973 2.000000 2.000000
-77.22859955 -722.81292725 27.49480057 2.000000 2.000000
-73.98470306 -726.14392090 30.51759911 2.000000 2.000000
-71.98200226 -727.94891357 31.77739906 2.000000 2.000000
-77.22560120 -763.45318604 23.54739952 2.000000 2.000000
-74.33799744 -724.67352295 30.00600052 2.000000 2.000000
-32.52149963 -729.31878662 45.01539993 2.000000 2.000000
-50.99539948 -741.55932617 14.48309994 1.000000 1.000000
-78.03230286 -727.88757324 26.95079994 2.000000 2.000000
-52.27590179 -754.52532959 36.08409882 2.000000 2.000000
-72.76519775 -760.08697510 26.18919945 2.000000 2.000000
-77.78029633 -760.19128418 25.91340065 2.000000 2.000000
-39.81600189 -727.27960205 42.36259842 2.000000 2.000000
-49.96599960 -740.21667480 9.92560005 1.000000 1.000000
-67.05660248 -733.33007813 34.04050064 2.000000 2.000000
-77.05480194 -727.58587646 28.08519936 2.000000 2.000000
-42.62870026 -728.04492188 41.50790024 2.000000 2.000000
-73.55429840 -754.01123047 28.89900017 2.000000 2.000000
-49.17919922 -753.70507813 38.50600052 2.000000 2.000000
-41.35969925 -731.72808838 41.08639908 2.000000 2.000000
-45.67200089 -741.00311279 4.72900009 1.000000 1.000000
-71.01349640 -752.73962402 29.52420044 2.000000 2.000000
-75.12729645 -722.57391357 29.19750023 2.000000 2.000000
-58.96910095 -737.41967773 39.46459961 2.000000 2.000000
-55.06520081 -749.97967529 35.63059998 2.000000 2.000000
-75.77539825 -755.86352539 28.27490044 2.000000 2.000000
-72.68260193 -733.05328369 30.79509926 2.000000 2.000000
-73.42569733 -722.21752930 29.95630074 2.000000 2.000000
-27.66839981 -726.62127686 46.96549988 2.000000 2.000000
-39.41230011 -731.99078369 41.69850159 2.000000 2.000000
-71.26959991 -726.27862549 32.21689987 2.000000 2.000000
-78.66680145 -720.21301270 25.99920082 2.000000 2.000000
-69.70020294 -753.85772705 29.05410004 2.000000 2.000000
-71.14199829 -759.08227539 26.87890053 2.000000 2.000000
-69.86029816 -735.39093018 32.79570007 2.000000 2.000000
-78.03070068 -758.03991699 26.76119995 2.000000 2.000000
-58.58229828 -745.21417236 34.73770142 2.000000 2.000000
-49.54869843 -752.07910156 38.71129990 2.000000 2.000000
-70.80280304 -757.15350342 27.75860023 2.000000 2.000000
-45.72520065 -740.94592285 4.71409988 1.000000 1.000000
-69.49970245 -732.78961182 32.75059891 2.000000 2.000000
-78.68659973 -727.78027344 26.12779999 2.000000 2.000000
-68.62960052 -734.30682373 33.07680130 2.000000 2.000000
-63.63589859 -735.65917969 35.38439941 2.000000 2.000000
-48.30080032 -741.16387939 13.14830017 1.000000 1.000000
-67.64589691 -750.88720703 30.08830070 2.000000 2.000000
-73.15830231 -738.07562256 32.23860168 2.000000 2.000000
-50.78469849 -751.98980713 38.31499863 2.000000 2.000000
-76.50469971 -726.57537842 28.64369965 2.000000 2.000000
-42.24539948 -732.52789307 40.46969986 2.000000 2.000000
-75.35289764 -764.39227295 22.47949982 2.000000 2.000000
-55.91859818 -743.44042969 36.73659897 2.000000 2.000000
-77.16760254 -727.11572266 27.99209976 2.000000 2.000000
-63.44139862 -745.68212891 36.08599854 2.000000 2.000000
-62.86360168 -740.85937500 34.07049942 2.000000 2.000000
-66.78119659 -729.63891602 36.47200012 2.000000 2.000000
-61.08369827 -743.15588379 35.00210190 2.000000 2.000000
-49.24119949 -754.15521240 38.25740051 2.000000 2.000000
-79.64600372 -722.41717529 25.25200081 2.000000 2.000000
-61.10089874 -742.88458252 34.99670029 2.000000 2.000000
-67.90830231 -725.31097412 37.05110168 2.000000 2.000000
-41.35250092 -729.67761230 41.50350189 2.000000 2.000000
-69.88870239 -733.96057129 32.83689880 2.000000 2.000000
-66.40509796 -755.75952148 29.00349998 2.000000 2.000000
-64.04969788 -729.78857422 38.20360184 2.000000 2.000000
-57.43339920 -746.97851563 34.95579910 2.000000 2.000000
-73.05300140 -726.82519531 31.10729980 2.000000 2.000000
-37.33300018 -727.34979248 43.80210114 2.000000 2.000000
-76.74759674 -761.21362305 25.29669952 2.000000 2.000000
-69.11820221 -755.65832520 28.61050034 2.000000 2.000000
-67.14689636 -724.37969971 37.91450119 2.000000 2.000000
-68.43039703 -730.80126953 33.82339859 2.000000 2.000000
-31.09919930 -724.21081543 46.15719986 2.000000 2.000000
-73.52870178 -739.78802490 31.62319946 2.000000 2.000000
-72.64830017 -731.99322510 31.12109947 2.000000 2.000000
-55.04209900 -747.24078369 36.18730164 2.000000 2.000000
-47.69820023 -757.15618896 37.44599915 2.000000 2.000000
-36.49150085 -726.78338623 44.19609833 2.000000 2.000000
-72.16609955 -737.76562500 32.60480118 2.000000 2.000000
-72.13510132 -754.80902100 28.76379967 2.000000 2.000000
-60.64509964 -741.01257324 34.27239990 2.000000 2.000000
-62.55490112 -742.70227051 35.18759918 2.000000 2.000000
-31.72830009 -727.49652100 45.71340179 2.000000 2.000000
-43.84749985 -734.04608154 39.50030136 2.000000 2.000000
-40.50730133 -731.45361328 41.44789886 2.000000 2.000000
-74.14810181 -731.50567627 29.88240051 2.000000 2.000000
-73.16490173 -756.90167236 27.93869972 2.000000 2.000000
-78.83450317 -761.61853027 25.25639915 2.000000 2.000000
-74.21399689 -762.60906982 24.08110046 2.000000 2.000000
-81.10060120 -766.25811768 21.16200066 2.000000 2.000000
-33.68259811 -732.12677002 43.41939926 2.000000 2.000000
-30.19009972 -728.80969238 45.91299820 2.000000 2.000000
-43.71609879 -731.21502686 40.50619888 2.000000 2.000000
-47.42409897 -755.61077881 38.42200089 2.000000 2.000000
-52.16199875 -747.97448730 38.05099869 2.000000 2.000000
-83.17749786 -767.30389404 20.45070076 2.000000 2.000000
-55.19029999 -740.78802490 39.09479904 2.000000 2.000000
-56.04809952 -744.03277588 34.26449966 2.000000 2.000000
-45.99269867 -739.75231934 1.71759999 1.000000 1.000000
-72.93080139 -735.24487305 31.85980034 2.000000 2.000000
-56.30550003 -743.77801514 35.58240128 2.000000 2.000000
-44.14609909 -734.43402100 39.33089828 2.000000 2.000000
-58.39049911 -739.93988037 30.14859962 1.000000 1.000000
-67.90390015 -736.83728027 33.51750183 2.000000 2.000000
-67.99109650 -733.77239990 33.30199814 2.000000 2.000000
-76.73470306 -737.83941650 30.82229996 2.000000 2.000000
-75.06420135 -760.67681885 25.65180016 2.000000 2.000000
-42.34379959 -733.43109131 40.25009918 2.000000 2.000000
-60.95360184 -738.96801758 33.92839813 2.000000 2.000000
-64.76640320 -733.84197998 35.79259872 2.000000 2.000000
-72.96900177 -739.95208740 31.81809998 2.000000 2.000000
-74.29759979 -757.67388916 27.39039993 2.000000 2.000000
-29.84210014 -729.07739258 45.84799957 2.000000 2.000000
-69.54019928 -738.80670166 32.84040070 2.000000 2.000000
-66.65429688 -735.66088867 33.13710022 2.000000 2.000000
-72.91049957 -762.08258057 24.62829971 2.000000 2.000000
-80.91919708 -738.49182129 29.27580070 2.000000 2.000000
-79.59110260 -764.28491211 23.08930016 2.000000 2.000000
-54.90069962 -750.51110840 35.49179840 2.000000 2.000000
-56.25749969 -744.54742432 34.25540161 2.000000 2.000000
-71.91220093 -732.21667480 31.66349983 2.000000 2.000000
-54.66030121 -739.86627197 26.66589928 1.000000 1.000000
-72.11920166 -757.12841797 27.79269981 2.000000 2.000000
-56.29460144 -749.49328613 34.30080032 2.000000 2.000000
-65.33730316 -753.14819336 29.78019905 2.000000 2.000000
-59.69919968 -739.98077393 35.02600098 2.000000 2.000000
-71.85260010 -760.97729492 25.51819992 2.000000 2.000000
-44.06669998 -736.70831299 38.69889832 2.000000 2.000000
-78.80870056 -764.41302490 22.93959999 2.000000 2.000000
-48.23109818 -754.11352539 38.63339996 2.000000 2.000000
-49.25849915 -741.36938477 10.74820042 1.000000 1.000000
-54.06280136 -751.93218994 35.97549820 2.000000 2.000000
-75.09719849 -739.82507324 31.18009949 2.000000 2.000000
-48.14590073 -740.68151855 9.81110001 1.000000 1.000000
-67.34770203 -737.45202637 33.52009964 2.000000 2.000000
-67.30989838 -757.67852783 28.23019981 2.000000 2.000000
-27.94370079 -727.82208252 46.81900024 2.000000 2.000000
-54.11429977 -740.76489258 22.95400047 1.000000 1.000000
-58.87480164 -748.30041504 35.34709930 2.000000 2.000000
-36.24580002 -725.01232910 44.71860123 2.000000 2.000000
-64.74079895 -742.23217773 34.39929962 2.000000 2.000000
-70.76010132 -760.50488281 25.98180008 2.000000 2.000000
-78.40360260 -763.40087891 23.91939926 2.000000 2.000000
-74.55000305 -729.23077393 29.92760086 2.000000 2.000000
-50.32630157 -750.12127686 38.78099823 2.000000 2.000000
-76.79409790 -756.76501465 27.54719925 2.000000 2.000000
-76.77839661 -757.71417236 27.52479935 2.000000 2.000000
-60.53239822 -739.10638428 33.99909973 2.000000 2.000000
-35.77439880 -729.83361816 43.68059921 2.000000 2.000000
-44.20140076 -732.37512207 39.92179871 2.000000 2.000000
-51.08649826 -755.60211182 36.31760025 2.000000 2.000000
-44.52379990 -733.44738770 39.38850021 2.000000 2.000000
-60.50899887 -751.15698242 35.97990036 2.000000 2.000000
-63.76779938 -743.37890625 35.18830109 2.000000 2.000000
-39.47959900 -730.84191895 42.02090073 2.000000 2.000000
-66.32070160 -743.86987305 34.38940048 2.000000 2.000000
-54.81370163 -747.94470215 36.30279922 2.000000 2.000000
-72.70359802 -731.95892334 31.15279961 2.000000 2.000000
-72.83920288 -732.79656982 30.64979935 2.000000 2.000000
-52.67219925 -755.04656982 35.55770111 2.000000 2.000000
-79.50450134 -763.31500244 24.02429962 2.000000 2.000000
-79.43309784 -729.55603027 25.35580063 2.000000 2.000000
-65.13130188 -742.42181396 34.26089859 2.000000 2.000000
-71.62819672 -730.60498047 31.88809967 2.000000 2.000000
-78.22429657 -722.72851563 26.66889954 2.000000 2.000000
-71.10679626 -757.90502930 27.43759918 2.000000 2.000000
-47.65890121 -740.70037842 6.29920006 1.000000 1.000000
-49.36479950 -737.22888184 35.45859909 1.000000 1.000000
-50.25559998 -754.60772705 37.38520050 2.000000 2.000000
-71.84929657 -731.35931396 31.85099983 2.000000 2.000000
-51.41289902 -741.57843018 17.85569954 1.000000 1.000000
-65.03250122 -752.15081787 29.91819954 2.000000 2.000000
-38.41040039 -727.69171143 43.16740036 2.000000 2.000000
-43.37540054 -728.31640625 41.33020020 2.000000 2.000000
-76.12239838 -722.57702637 28.38730049 2.000000 2.000000
-66.27069855 -751.74938965 29.63330078 2.000000 2.000000
-62.28329849 -748.07952881 29.16609955 1.000000 1.000000
-71.79660034 -753.73992920 29.05859947 2.000000 2.000000
-46.13830185 -733.53179932 38.89789963 2.000000 2.000000
-51.47610092 -754.93817139 36.40660095 2.000000 2.000000
-53.48249817 -747.92767334 37.71939850 2.000000 2.000000
-36.73149872 -728.39038086 43.73649979 2.000000 2.000000
-42.58290100 -729.45721436 41.29589844 2.000000 2.000000
-77.24199677 -724.01281738 27.88529968 2.000000 2.000000
-68.02020264 -736.45422363 33.39960098 2.000000 2.000000
-66.62660217 -730.37622070 36.19350052 2.000000 2.000000
-64.49199677 -747.16931152 35.68980026 2.000000 2.000000
-66.47070313 -757.96557617 28.11109924 2.000000 2.000000
-54.09510040 -747.97021484 37.23609924 2.000000 2.000000
-37.85369873 -730.79931641 42.61510086 2.000000 2.000000
-70.35900116 -760.73101807 26.02330017 2.000000 2.000000
-77.63729858 -721.69470215 26.88570023 2.000000 2.000000
-70.88439941 -731.96392822 32.13399887 2.000000 2.000000
-58.80709839 -746.47802734 35.05419922 2.000000 2.000000
-80.19439697 -763.81512451 23.71949959 2.000000 2.000000
-66.31269836 -724.24212646 38.55690002 2.000000 2.000000
-60.31900024 -746.53839111 35.45109940 2.000000 2.000000
-36.64279938 -729.24719238 43.50109863 2.000000 2.000000
-40.90359879 -728.22381592 41.81309891 2.000000 2.000000
-71.71260071 -754.18487549 28.95339966 2.000000 2.000000
-66.35880280 -732.11987305 35.49919891 2.000000 2.000000
-65.27760315 -751.82391357 29.86949921 2.000000 2.000000
-67.20390320 -738.49511719 33.51380157 2.000000 2.000000
-53.07469940 -753.85461426 35.84880066 2.000000 2.000000
-73.01010132 -735.32397461 31.81119919 2.000000 2.000000
-65.90889740 -726.51617432 38.40349960 2.000000 2.000000
-56.88330078 -741.65838623 29.52700043 1.000000 1.000000
-44.01789856 -739.63848877 -2.39890003 1.000000 1.000000
-65.07119751 -738.21679688 33.93280029 2.000000 2.000000
-78.66000366 -722.40942383 26.24939919 2.000000 2.000000
-38.36299896 -728.09997559 43.10549927 2.000000 2.000000
-66.28299713 -732.05310059 35.55350113 2.000000 2.000000
-58.09460068 -745.03887939 34.28519821 2.000000 2.000000
-55.16270065 -747.27069092 35.81990051 2.000000 2.000000
-73.05310059 -758.82928467 26.80800056 2.000000 2.000000
-50.17179871 -737.09448242 34.83580017 1.000000 1.000000
-78.74050140 -720.76220703 25.69879913 2.000000 2.000000
-51.92490005 -741.56817627 18.50810051 1.000000 1.000000
-80.83630371 -764.33709717 23.27680016 2.000000 2.000000
-70.29669952 -726.28277588 32.66939926 2.000000 2.000000
-78.42910004 -726.50158691 26.73439980 2.000000 2.000000
-73.28900146 -729.14428711 31.02790070 2.000000 2.000000
-30.20569992 -727.15222168 46.24399948 2.000000 2.000000
-48.04019928 -740.91821289 6.91769981 1.000000 1.000000
-51.43809891 -755.04748535 36.34310150 2.000000 2.000000
-55.02769852 -740.99621582 21.96249962 1.000000 1.000000
-81.75260162 -766.14862061 21.37800026 2.000000 2.000000
-76.32309723 -760.89587402 25.48710060 2.000000 2.000000
-56.06660080 -741.29357910 26.58349991 1.000000 1.000000
-63.62900162 -745.42211914 36.03250122 2.000000 2.000000
-63.72470093 -727.16961670 39.16579819 2.000000 2.000000
-46.78189850 -735.44842529 37.78910065 2.000000 2.000000
-75.63670349 -758.05529785 27.25469971 2.000000 2.000000
-76.00260162 -739.27880859 30.94860077 2.000000 2.000000
-70.10350037 -755.44262695 28.62490082 2.000000 2.000000
-65.67549896 -734.60607910 34.13729858 2.000000 2.000000
-74.77010345 -732.20410156 28.94230080 2.000000 2.000000
-71.61109924 -725.12640381 31.83909988 2.000000 2.000000
-79.64669800 -725.22222900 25.33959961 2.000000 2.000000
-74.50579834 -728.79937744 29.97220039 2.000000 2.000000
-71.30909729 -731.52581787 32.07749939 2.000000 2.000000
-38.46469879 -729.63958740 42.74570084 2.000000 2.000000
-41.81060028 -730.91217041 41.13359833 2.000000 2.000000
-40.41019821 -728.33831787 42.02149963 2.000000 2.000000
-44.10739899 -739.89916992 -0.64520001 1.000000 1.000000
-68.93849945 -729.97369385 33.63859940 2.000000 2.000000
-47.46170044 -741.09448242 6.77390003 1.000000 1.000000
-48.57199860 -737.03009033 36.23180008 2.000000 2.000000
-60.83330154 -748.11798096 36.01229858 2.000000 2.000000
-72.11990356 -734.52868652 31.26720047 2.000000 2.000000
-67.87429810 -754.77478027 29.00049973 2.000000 2.000000
-75.27429962 -729.41131592 29.35519981 2.000000 2.000000
-47.72859955 -757.35339355 37.29079819 2.000000 2.000000
-71.60350037 -732.64678955 31.88780022 2.000000 2.000000
-72.68810272 -758.69281006 26.84189987 2.000000 2.000000
-69.13480377 -751.24432373 30.08410072 2.000000 2.000000
-67.98570251 -751.36547852 30.10530090 2.000000 2.000000
-81.23200226 -720.72222900 23.35059929 2.000000 2.000000
-49.88370132 -755.59637451 37.10929871 2.000000 2.000000
-49.24039841 -750.32708740 39.10869980 2.000000 2.000000
-31.80470085 -726.85742188 45.79339981 2.000000 2.000000
-48.15370178 -736.40100098 36.68849945 2.000000 2.000000
-50.03200150 -754.34967041 37.64540100 2.000000 2.000000
-68.61419678 -731.00781250 33.71749878 2.000000 2.000000
-79.08950043 -760.79388428 25.69700050 2.000000 2.000000
-73.21119690 -730.30487061 30.97750092 2.000000 2.000000
-51.48699951 -751.44268799 38.15689850 2.000000 2.000000
-53.39540100 -742.66900635 40.19329834 2.000000 2.000000
-78.73190308 -730.76092529 25.82189941 2.000000 2.000000
-44.32089996 -730.75598145 40.60829926 2.000000 2.000000
-60.47890091 -738.01440430 36.20429993 2.000000 2.000000
-64.25779724 -727.00598145 39.09519958 2.000000 2.000000
-32.84970093 -726.52661133 45.42900085 2.000000 2.000000
-64.55989838 -744.08868408 35.25859833 2.000000 2.000000
-33.28860092 -732.58502197 43.32009888 2.000000 2.000000
-27.55369949 -727.72729492 46.73789978 2.000000 2.000000
-77.63790131 -762.23449707 24.60320091 2.000000 2.000000
-65.09390259 -738.43719482 33.94219971 2.000000 2.000000
-47.14130020 -740.49517822 7.62020016 1.000000 1.000000
-73.01380157 -734.99871826 31.73060036 2.000000 2.000000
-72.87640381 -759.69628906 26.31590080 2.000000 2.000000
-37.35049820 -728.38897705 43.43719864 2.000000 2.000000
-64.89710236 -727.66467285 38.64559937 2.000000 2.000000
-30.21969986 -727.04632568 46.26129913 2.000000 2.000000
-74.01740265 -735.10668945 31.41930008 2.000000 2.000000
-30.48419952 -723.53607178 46.41460037 2.000000 2.000000
-71.32779694 -726.30627441 32.18519974 2.000000 2.000000
-45.51589966 -740.88201904 5.69140005 1.000000 1.000000
-78.15350342 -727.80969238 26.86160088 2.000000 2.000000
-39.15700150 -733.52539063 41.02690125 2.000000 2.000000
-29.56450081 -727.63879395 46.34980011 2.000000 2.000000
-74.75800323 -763.66790771 23.20509911 2.000000 2.000000
-51.49950027 -750.24639893 38.53440094 2.000000 2.000000
-78.76860046 -721.34240723 25.69569969 2.000000 2.000000
-81.30049896 -722.67187500 23.48270035 2.000000 2.000000
-77.04019928 -738.61480713 30.75219917 2.000000 2.000000
-50.92869949 -756.19348145 36.19770050 2.000000 2.000000
-47.69340134 -735.92297363 37.09379959 2.000000 2.000000
-81.31159973 -763.07037354 24.50399971 2.000000 2.000000
-81.29029846 -763.03680420 24.52930069 2.000000 2.000000
-40.79259872 -735.45117188 40.12279892 2.000000 2.000000
-78.72779846 -761.01330566 25.51469994 2.000000 2.000000
-47.61080170 -742.02801514 5.78280020 1.000000 1.000000
-43.01890182 -733.75341797 39.91400146 2.000000 2.000000
-59.84489822 -747.27642822 35.81000137 2.000000 2.000000
-46.31850052 -734.62817383 38.33610153 2.000000 2.000000
-66.13279724 -752.35662842 29.66670036 2.000000 2.000000
-69.25759888 -729.30798340 33.48139954 2.000000 2.000000
-56.58380127 -747.30651855 34.49420166 2.000000 2.000000
-76.14219666 -756.54382324 28.03730011 2.000000 2.000000
-72.31590271 -758.22442627 27.07069969 2.000000 2.000000
-54.19540024 -742.47607422 39.65700150 2.000000 2.000000
-63.38130188 -740.71728516 34.33560181 2.000000 2.000000
-73.51399994 -761.08471680 25.27020073 2.000000 2.000000
-52.74649811 -752.53918457 36.71360016 2.000000 2.000000
-76.58989716 -731.60083008 27.71299934 2.000000 2.000000
-76.46669769 -760.57519531 25.73030090 2.000000 2.000000
-65.48100281 -752.11090088 29.85790062 2.000000 2.000000
-31.06539917 -726.76599121 45.93289948 2.000000 2.000000
-70.44570160 -729.73980713 32.77890015 2.000000 2.000000
-65.29869843 -725.88391113 38.92599869 2.000000 2.000000
-57.38970184 -743.64501953 33.13499832 2.000000 2.000000
-34.13439941 -730.46252441 43.89450073 2.000000 2.000000
-44.36930084 -738.46972656 -2.36400008 1.000000 1.000000
-54.41999817 -743.88348389 38.09640121 2.000000 2.000000
-73.53880310 -762.80389404 23.99239922 2.000000 2.000000
-73.74500275 -759.62902832 26.30690002 2.000000 2.000000
-76.39119720 -761.57507324 25.08569908 2.000000 2.000000
-49.57500076 -737.09741211 35.31620026 1.000000 1.000000
-37.92770004 -725.87689209 43.87639999 2.000000 2.000000
-64.45639801 -735.96472168 34.16299820 2.000000 2.000000
-58.84569931 -747.84411621 35.23870087 2.000000 2.000000
-71.79429626 -740.95068359 32.46920013 2.000000 2.000000
-74.49310303 -730.14202881 29.83230019 2.000000 2.000000
-43.73130035 -736.05712891 39.03689957 2.000000 2.000000
-53.70420074 -749.02087402 37.40019989 2.000000 2.000000
-66.37580109 -758.45178223 27.92799950 2.000000 2.000000
-68.93350220 -752.41241455 29.68460083 2.000000 2.000000
-49.00419998 -756.24572754 37.26620102 2.000000 2.000000
-65.64949799 -755.18249512 29.41510010 2.000000 2.000000
-71.69629669 -760.79010010 25.69540024 2.000000 2.000000
-67.05740356 -751.51867676 29.94589996 2.000000 2.000000
-82.79010010 -767.17218018 20.51630020 2.000000 2.000000
-71.75299835 -729.16131592 32.01350021 2.000000 2.000000
-80.54399872 -726.37847900 24.43149948 2.000000 2.000000
-51.23709869 -741.75067139 17.21710014 1.000000 1.000000
-77.74659729 -759.59582520 26.21089935 2.000000 2.000000
-56.24909973 -746.51257324 34.56119919 2.000000 2.000000
-46.55390167 -732.64868164 39.15980148 2.000000 2.000000
-70.05079651 -759.54388428 26.70630074 2.000000 2.000000
-73.34249878 -728.41302490 31.16889954 2.000000 2.000000
-79.26429749 -719.85522461 25.25090027 2.000000 2.000000
-35.96900177 -727.89282227 44.13470078 2.000000 2.000000
-56.24160004 -747.12792969 35.04710007 2.000000 2.000000
-71.72090149 -737.26477051 32.67649841 2.000000 2.000000
-75.31459808 -764.87982178 22.08429909 2.000000 2.000000
-41.10029984 -736.48669434 39.71969986 2.000000 2.000000
-41.56520081 -732.00817871 40.86270142 2.000000 2.000000
-65.72480011 -731.43621826 36.49209976 2.000000 2.000000
-78.24669647 -761.89318848 24.92390060 2.000000 2.000000
-55.19620132 -742.51788330 38.63750076 2.000000 2.000000
-70.10030365 -753.28167725 29.31649971 2.000000 2.000000
-53.10490036 -751.38677979 36.98989868 2.000000 2.000000
-51.58800125 -755.80120850 35.83739853 2.000000 2.000000
-38.13100052 -728.00921631 43.23550034 2.000000 2.000000
-35.50640106 -728.86407471 44.00640106 2.000000 2.000000
-58.91979980 -746.09588623 35.02090073 2.000000 2.000000
-78.63649750 -728.56549072 26.09539986 2.000000 2.000000
-75.29650116 -755.90692139 28.40040016 2.000000 2.000000
-37.85609818 -727.11358643 43.67509842 2.000000 2.000000
-71.65000153 -752.71527100 29.59740067 2.000000 2.000000
-53.64419937 -748.83007813 37.46110153 2.000000 2.000000
-73.34159851 -729.16308594 30.88279915 2.000000 2.000000
-60.70460129 -738.76977539 34.87480164 2.000000 2.000000
-53.72909927 -740.79241943 20.71369934 1.000000 1.000000
-37.05390167 -731.76678467 42.42910004 2.000000 2.000000
-65.16249847 -725.68371582 39.05709839 2.000000 2.000000
-32.54579926 -725.46057129 45.59000015 2.000000 2.000000
-64.15390015 -733.43212891 36.24779892 2.000000 2.000000
-54.87649918 -741.93237305 39.43009949 2.000000 2.000000
-45.02809906 -737.73309326 37.77819824 2.000000 2.000000
-76.60910034 -757.32641602 27.66370010 2.000000 2.000000
-66.82820129 -757.14697266 28.44440079 2.000000 2.000000
-66.15769958 -726.95697021 38.05350113 2.000000 2.000000
-75.41380310 -727.01452637 29.56110001 2.000000 2.000000
-78.27529907 -722.21008301 26.67989922 2.000000 2.000000
-34.95669937 -733.23419189 42.24179840 2.000000 2.000000
-63.86470032 -741.48132324 34.62139893 2.000000 2.000000
-56.41009903 -740.52087402 26.81640053 1.000000 1.000000
-42.24629974 -732.74932861 40.39860153 2.000000 2.000000
-81.14569855 -765.77941895 21.63890076 2.000000 2.000000
-78.11969757 -723.51861572 26.96430016 2.000000 2.000000
-77.02510071 -728.57171631 27.96080017 2.000000 2.000000
-32.58319855 -730.24157715 44.49769974 2.000000 2.000000
-79.43219757 -763.06781006 24.22780037 2.000000 2.000000
-55.50339890 -745.13708496 35.47909927 2.000000 2.000000
-72.18789673 -761.55517578 25.03300095 2.000000 2.000000
-44.85020065 -735.23052979 38.88150024 2.000000 2.000000
-73.74790192 -730.60247803 30.56480026 2.000000 2.000000
-32.36299896 -729.35107422 45.05279922 2.000000 2.000000
-78.03759766 -737.32171631 30.09339905 2.000000 2.000000
-68.93419647 -753.72711182 29.38240051 2.000000 2.000000
-64.28299713 -743.05322266 35.09420013 2.000000 2.000000
-36.90380096 -729.58691406 43.28730011 2.000000 2.000000
-75.61569977 -726.24749756 29.44140053 2.000000 2.000000
-68.70850372 -734.57421875 33.12779999 2.000000 2.000000
-56.54579926 -748.22882080 34.45429993 2.000000 2.000000
-40.23350143 -732.39508057 41.23960114 2.000000 2.000000
-66.41169739 -758.30218506 28.00839996 2.000000 2.000000
-70.08249664 -757.08508301 28.09210014 2.000000 2.000000
-74.00930023 -728.25518799 30.74570084 2.000000 2.000000
-70.20079803 -754.68310547 28.96540070 2.000000 2.000000
-50.62540054 -752.88610840 38.11949921 2.000000 2.000000
-47.71979904 -740.53198242 7.22049999 1.000000 1.000000
-81.30269623 -768.14202881 18.67359924 2.000000 2.000000
-41.07469940 -730.52416992 41.46540070 2.000000 2.000000
-55.56850052 -748.33679199 35.33359909 2.000000 2.000000
-71.76850128 -726.35571289 31.90419960 2.000000 2.000000
-31.13960075 -728.35028076 45.68960190 2.000000 2.000000
-75.75879669 -765.73437500 21.12080002 2.000000 2.000000
-70.50890350 -738.79162598 32.80009842 2.000000 2.000000
-79.90450287 -761.27258301 25.64509964 2.000000 2.000000
-55.97790146 -742.57550049 37.28369904 2.000000 2.000000
-53.79999924 -740.77789307 21.90509987 1.000000 1.000000
-46.02159882 -732.75048828 39.24140167 2.000000 2.000000
-73.44309998 -762.90722656 24.02000046 2.000000 2.000000
-75.44909668 -728.02569580 29.45870018 2.000000 2.000000
-79.39720154 -725.68249512 25.64690018 2.000000 2.000000
-72.59639740 -753.66748047 28.97649956 2.000000 2.000000
-42.08050156 -733.75067139 40.30400085 2.000000 2.000000
-77.90180206 -731.61853027 26.46540070 2.000000 2.000000
-35.74380112 -728.58990479 44.09339905 2.000000 2.000000
-74.25170135 -731.66809082 29.72249985 2.000000 2.000000
-81.27780151 -721.97888184 23.39039993 2.000000 2.000000
-60.72930145 -738.05877686 35.40380096 2.000000 2.000000
-70.23719788 -734.21112061 32.76720047 2.000000 2.000000
-69.99759674 -759.53448486 26.70840073 2.000000 2.000000
-48.34260178 -756.31988525 37.51110077 2.000000 2.000000
-67.71540070 -756.67382813 28.44949913 2.000000 2.000000
-65.20359802 -755.16058350 29.52770042 2.000000 2.000000
-55.02750015 -746.91027832 36.04249954 2.000000 2.000000
-39.03839874 -729.24627686 42.59120178 2.000000 2.000000
-40.32329941 -731.79742432 41.39110184 2.000000 2.000000
-66.05480194 -724.30310059 38.66619873 2.000000 2.000000
-78.08920288 -760.41802979 25.77750015 2.000000 2.000000
-53.90539932 -750.88031006 36.63539886 2.000000 2.000000
-57.68320084 -742.26281738 34.71540070 2.000000 2.000000
-71.15820313 -752.17010498 29.70800018 2.000000 2.000000
-75.81379700 -721.56817627 28.64249992 2.000000 2.000000
-79.13639832 -730.26312256 25.47649956 2.000000 2.000000
-76.83920288 -764.41619873 22.41990089 2.000000 2.000000
-54.23830032 -751.73028564 35.85919952 2.000000 2.000000
-78.69069672 -719.58782959 25.76749992 2.000000 2.000000
-72.46579742 -733.82562256 30.96759987 2.000000 2.000000
-54.08480072 -749.85650635 36.62549973 2.000000 2.000000
-67.50150299 -729.17199707 36.04999924 2.000000 2.000000
-70.95639801 -754.65582275 28.85250092 2.000000 2.000000
-25.54019928 -723.22448730 47.70759964 2.000000 2.000000
-44.92039871 -733.47027588 39.26020050 2.000000 2.000000
-77.52439880 -727.41912842 27.57900047 2.000000 2.000000
-40.30139923 -727.68817139 42.04249954 2.000000 2.000000
-37.81769943 -726.52551270 43.92309952 2.000000 2.000000
-43.59870148 -740.35052490 2.31369996 1.000000 1.000000
-76.00779724 -737.95269775 31.21269989 2.000000 2.000000
-66.85279846 -737.86791992 33.68750000 2.000000 2.000000
-68.15419769 -733.28411865 33.50000000 2.000000 2.000000
-70.53060150 -752.84600830 29.50009918 2.000000 2.000000
-44.28829956 -729.38958740 41.12659836 2.000000 2.000000
-39.99000168 -731.28039551 41.65290070 2.000000 2.000000
-52.30630112 -741.58062744 18.11160088 1.000000 1.000000
-65.93720245 -752.25811768 29.71299934 2.000000 2.000000
-47.60210037 -740.46008301 5.82950020 1.000000 1.000000
-67.17669678 -757.41088867 28.23380089 2.000000 2.000000
-33.59899902 -726.48382568 45.15549850 2.000000 2.000000
-73.17590332 -738.30541992 32.19720078 2.000000 2.000000
-53.56409836 -748.91668701 37.61040115 2.000000 2.000000
-74.29959869 -759.64648438 26.31380081 2.000000 2.000000
-78.22200012 -765.87512207 20.21850014 2.000000 2.000000
-69.56369781 -756.75891113 28.16519928 2.000000 2.000000
-39.93830109 -727.46362305 42.27899933 2.000000 2.000000
-75.20880127 -721.59301758 28.91209984 2.000000 2.000000
-59.14410019 -739.98278809 35.80410004 2.000000 2.000000
-79.33640289 -728.02288818 25.42140007 2.000000 2.000000
-70.32859802 -731.85650635 32.55210114 2.000000 2.000000
-62.65869904 -728.72137451 39.18320084 2.000000 2.000000
-55.55550003 -745.78289795 35.61759949 2.000000 2.000000
-76.39849854 -761.82159424 24.90620041 2.000000 2.000000
-65.49890137 -738.48541260 33.78379822 2.000000 2.000000
-73.21610260 -737.96118164 32.19720078 2.000000 2.000000
-53.78300095 -740.79797363 21.87389946 1.000000 1.000000
-70.05339813 -727.54937744 32.92559814 2.000000 2.000000
-36.94829941 -732.89038086 41.81420135 2.000000 2.000000
-69.23909760 -752.30541992 29.74580002 2.000000 2.000000
-71.50569916 -757.66308594 27.43009949 2.000000 2.000000
-29.87380028 -726.31817627 46.33010101 2.000000 2.000000
-37.81200027 -732.37951660 41.89659882 2.000000 2.000000
-36.41880035 -731.35430908 42.84099960 2.000000 2.000000
-67.76029968 -751.95782471 29.81360054 2.000000 2.000000
-72.18509674 -753.33581543 29.14279938 2.000000 2.000000
-71.12580109 -732.65270996 32.20320129 2.000000 2.000000
-62.79940033 -744.93579102 35.81119919 2.000000 2.000000
-82.52330017 -721.31628418 22.18740082 2.000000 2.000000
-73.40670013 -729.80468750 30.87470055 2.000000 2.000000
-73.45269775 -761.67651367 25.03709984 2.000000 2.000000
-32.44910049 -731.79901123 43.90459824 2.000000 2.000000
-73.57540131 -723.83172607 30.22629929 2.000000 2.000000
-43.58250046 -732.30102539 40.17480087 2.000000 2.000000
-33.41339874 -731.02502441 43.87469864 2.000000 2.000000
-38.96099854 -731.51202393 41.99160004 2.000000 2.000000
-70.64890289 -752.07067871 29.80809975 2.000000 2.000000
-77.14600372 -731.06878662 27.34049988 2.000000 2.000000
-72.74140167 -755.35717773 28.40099907 2.000000 2.000000
-77.17749786 -727.32830811 27.92910004 2.000000 2.000000
-43.72230148 -728.70947266 41.23229980 2.000000 2.000000
-77.24610138 -726.22650146 28.04669952 2.000000 2.000000
-38.61800003 -729.39068604 42.72660065 2.000000 2.000000
-71.67440033 -762.62011719 24.32959938 2.000000 2.000000
-62.12910080 -731.53387451 37.98429871 2.000000 2.000000
-69.88500214 -732.13201904 32.78939819 2.000000 2.000000
-59.29600143 -748.08392334 35.47299957 2.000000 2.000000
-43.70140076 -729.71112061 41.06219864 2.000000 2.000000
-53.93730164 -742.22161865 40.07590103 2.000000 2.000000
-54.98640060 -751.42791748 35.21289825 2.000000 2.000000
-54.75400162 -742.89532471 38.93030167 2.000000 2.000000
-44.63249969 -738.78680420 -2.16440010 1.000000 1.000000
-45.08549881 -739.17626953 0.15500000 1.000000 1.000000
-76.85729980 -728.91552734 28.07810020 2.000000 2.000000
-67.81390381 -757.28662109 28.19199944 2.000000 2.000000
-72.46589661 -729.31671143 31.64749908 2.000000 2.000000
-42.80920029 -729.19891357 41.35620117 2.000000 2.000000
-49.15100098 -735.14678955 36.79970169 2.000000 2.000000
-75.28790283 -728.78521729 29.52639961 2.000000 2.000000
-62.42380142 -748.63311768 29.21590042 1.000000 1.000000
-66.21839905 -757.01861572 28.58189964 2.000000 2.000000
-69.19640350 -752.69592285 29.57320023 2.000000 2.000000
-80.49919891 -765.11450195 22.38719940 2.000000 2.000000
-52.22740173 -740.80548096 17.74419975 1.000000 1.000000
-55.71689987 -747.12152100 35.24459839 2.000000 2.000000
-74.94699860 -765.64831543 21.67919922 2.000000 2.000000
-32.99219894 -728.56591797 45.10900116 2.000000 2.000000
-77.37129974 -731.71240234 26.99049950 2.000000 2.000000
-64.49240112 -747.65008545 35.55860138 2.000000 2.000000
-57.02030182 -745.82507324 34.30659866 2.000000 2.000000
-73.34149933 -728.74353027 31.14240074 2.000000 2.000000
-68.47309875 -756.27001953 28.60079956 2.000000 2.000000
-69.98699951 -755.21411133 28.64699936 2.000000 2.000000
-42.57860184 -731.57910156 40.72570038 2.000000 2.000000
-39.09429932 -733.01867676 41.32410049 2.000000 2.000000
-63.70959854 -746.67657471 36.01589966 2.000000 2.000000
-67.44000244 -724.79498291 37.60530090 2.000000 2.000000
-61.96390152 -747.81579590 29.04179955 1.000000 1.000000
-66.54509735 -752.37219238 29.54240036 2.000000 2.000000
-81.38610077 -763.24261475 24.43190002 2.000000 2.000000
-69.73100281 -761.14288330 25.80240059 2.000000 2.000000
-75.28520203 -727.31170654 29.59889984 2.000000 2.000000
-64.80870056 -749.46667480 29.68090057 1.000000 1.000000
-54.22949982 -748.46820068 36.92490005 2.000000 2.000000
-74.07779694 -764.77191162 22.22800064 2.000000 2.000000
-65.27110291 -732.08477783 36.57619858 2.000000 2.000000
-71.88110352 -759.40802002 26.59630013 2.000000 2.000000
-57.82630157 -742.11560059 34.89130020 2.000000 2.000000
-59.53409958 -737.99499512 38.51549911 2.000000 2.000000
-63.35910034 -740.76062012 34.40409851 2.000000 2.000000
-64.87709808 -730.86987305 37.41770172 2.000000 2.000000
-33.52249908 -727.16192627 45.12099838 2.000000 2.000000
-75.38700104 -757.68762207 27.44969940 2.000000 2.000000
-42.95859909 -733.32702637 39.98740005 2.000000 2.000000
-45.81029892 -740.89178467 6.42199993 1.000000 1.000000
-78.78430176 -766.39349365 19.51770020 2.000000 2.000000
-76.61070251 -758.15997314 27.06529999 2.000000 2.000000
-37.93880081 -730.93511963 42.54919815 2.000000 2.000000
-78.35430145 -763.35650635 23.85840034 2.000000 2.000000
-70.06099701 -754.23602295 28.88839912 2.000000 2.000000
-45.10710144 -737.44171143 37.93109894 2.000000 2.000000
-59.49720001 -749.53137207 35.79169846 2.000000 2.000000
-76.27469635 -726.10028076 29.06850052 2.000000 2.000000
-70.76820374 -734.82598877 32.45090103 2.000000 2.000000
-75.91280365 -757.14227295 27.71419907 2.000000 2.000000
-58.71540070 -738.42822266 38.75970078 2.000000 2.000000
-51.95500183 -749.63037109 38.48020172 2.000000 2.000000
-71.08070374 -753.08178711 29.38739967 2.000000 2.000000
-57.56219864 -740.28131104 27.82110023 1.000000 1.000000
-71.28600311 -752.58502197 29.56089973 2.000000 2.000000
-75.36569977 -763.67938232 23.18269920 2.000000 2.000000
-51.89049911 -753.68682861 36.89469910 2.000000 2.000000
-71.15139771 -760.07781982 26.15539932 2.000000 2.000000
-76.66929626 -757.53710938 27.53339958 2.000000 2.000000
-53.36759949 -752.68707275 36.13380051 2.000000 2.000000
-36.02569962 -726.36181641 44.47040176 2.000000 2.000000
-55.90670013 -747.24011230 35.15499878 2.000000 2.000000
-79.09059906 -725.45697021 26.09860039 2.000000 2.000000
-31.74390030 -727.90802002 45.62649918 2.000000 2.000000
-51.10670090 -753.67132568 37.30619812 2.000000 2.000000
-65.17340088 -750.82641602 30.07029915 2.000000 2.000000
-34.57559967 -730.01977539 43.98360062 2.000000 2.000000
-37.96480179 -727.64031982 43.45370102 2.000000 2.000000
-71.90830231 -733.79510498 31.66130066 2.000000 2.000000
-32.72990036 -726.63128662 45.46739960 2.000000 2.000000
-72.76889801 -756.81402588 27.82900047 2.000000 2.000000
-54.53590012 -745.15972900 36.31639862 2.000000 2.000000
-77.98919678 -759.40167236 26.34799957 2.000000 2.000000
-56.08789825 -749.37237549 34.76470184 2.000000 2.000000
-70.74379730 -728.94842529 32.65409851 2.000000 2.000000
-60.69490051 -739.77777100 33.43349838 2.000000 2.000000
-75.28919983 -757.88262939 27.33769989 2.000000 2.000000
-46.86389923 -741.28051758 6.10260010 1.000000 1.000000
-50.39540100 -755.73681641 36.70059967 2.000000 2.000000
-47.11190033 -756.72961426 37.88270187 2.000000 2.000000
-71.48870087 -759.92230225 26.27529907 2.000000 2.000000
-65.48329926 -750.39312744 30.05159950 2.000000 2.000000
-79.47260284 -724.25811768 26.00009918 2.000000 2.000000
-33.48910141 -728.61468506 44.86840057 2.000000 2.000000
-45.32149887 -740.67962646 5.17609978 1.000000 1.000000
-47.76150131 -733.66131592 38.35029984 2.000000 2.000000
-53.71129990 -749.43701172 37.06589890 2.000000 2.000000
-77.05200195 -729.77172852 27.55690002 2.000000 2.000000
-57.19309998 -741.82708740 36.11959839 2.000000 2.000000
-65.52120209 -736.00671387 33.36169815 2.000000 2.000000
-44.56069946 -740.57958984 1.27810001 1.000000 1.000000
-71.76180267 -732.49371338 31.73520088 2.000000 2.000000
-37.20339966 -725.36999512 44.18330002 2.000000 2.000000
-70.62429810 -755.73297119 28.44400024 2.000000 2.000000
