-71.18810272 -742.66729736 44.50579834 2.000000 2.000000
-86.57009888 -709.74938965 32.05609894 2.000000 2.000000
-73.35510254 -742.69641113 43.29650116 2.000000 2.000000
-69.82669830 -759.09057617 38.26570129 2.000000 2.000000
-79.26950073 -760.53918457 25.89559937 2.000000 2.000000
-53.85599899 -759.61492920 41.24060059 2.000000 2.000000
-68.84369659 -730.97467041 44.42399979 1.000000 1.000000
-76.58959961 -713.47247314 44.16939926 2.000000 2.000000
-56.19100189 -748.23162842 46.10189819 2.000000 2.000000
-86.41220093 -728.86517334 38.24309921 2.000000 2.000000
-57.33250046 -745.69268799 48.17499924 2.000000 2.000000
-94.82830048 -724.51428223 32.29909897 2.000000 2.000000
-63.74900055 -742.58502197 45.19850159 2.000000 2.000000
-49.76259995 -736.95788574 35.98099899 1.000000 1.000000
-87.60179901 -723.82672119 37.39860153 2.000000 2.000000
-86.81130219 -713.67572021 34.08629990 2.000000 2.000000
-46.59600067 -740.41998291 -0.45300001 1.000000 1.000000
-59.55400085 -764.00207520 36.62960052 2.000000 2.000000
-71.31700134 -739.06817627 46.13880157 2.000000 2.000000
-50.35720062 -737.14398193 35.33570099 1.000000 1.000000
-90.83809662 -714.23278809 28.28249931 2.000000 2.000000
-88.25710297 -707.77569580 28.25939941 2.000000 2.000000
-78.42030334 -742.19677734 40.80160141 2.000000 2.000000
-84.70610046 -728.89147949 39.07400131 2.000000 2.000000
-59.18099976 -749.13342285 44.27819824 2.000000 2.000000
-79.12590027 -754.59857178 29.02659988 2.000000 2.000000
-55.01869965 -765.75787354 36.20679855 2.000000 2.000000
-76.68599701 -728.01141357 43.83269882 2.000000 2.000000
-95.17600250 -728.62591553 32.71049881 2.000000 2.000000
-85.26860046 -762.84417725 21.53899956 2.000000 2.000000
-79.31880188 -727.34448242 42.67979813 2.000000 2.000000
-52.36280060 -740.39721680 14.00599957 1.000000 1.000000
-74.15660095 -744.08660889 42.12969971 2.000000 2.000000
-86.16200256 -716.06402588 35.80960083 2.000000 2.000000
-62.63019943 -762.90057373 36.04909897 2.000000 2.000000
-54.77949905 -757.18798828 42.67610168 2.000000 2.000000
-69.62599945 -756.99871826 40.41009903 2.000000 2.000000
-66.28340149 -750.53900146 45.50080109 2.000000 2.000000
-76.86309814 -708.12487793 43.89839935 2.000000 2.000000
-93.79149628 -724.04681396 32.80130005 2.000000 2.000000
-71.24050140 -717.83422852 46.39260101 2.000000 2.000000
-75.76470184 -721.40802002 44.38890076 2.000000 2.000000
-53.74760056 -751.26098633 45.75410080 2.000000 2.000000
-96.83689880 -727.82348633 31.69809914 2.000000 2.000000
-78.48880005 -716.65869141 42.66640091 2.000000 2.000000
-89.56719971 -723.17950439 35.57960129 2.000000 2.000000
-82.17040253 -719.45568848 39.58860016 2.000000 2.000000
-54.06430054 -758.29901123 42.29949951 2.000000 2.000000
-61.12609863 -751.34332275 44.09889984 2.000000 2.000000
-39.72940063 -737.44610596 42.48839951 2.000000 2.000000
-46.00239944 -749.33227539 46.81710052 2.000000 2.000000
-53.18550110 -767.63842773 34.36669922 2.000000 2.000000
-25.35540009 -733.22662354 46.93450165 2.000000 2.000000
-61.53680038 -740.76977539 43.85229874 1.000000 1.000000
-76.03230286 -757.34082031 29.12630081 2.000000 2.000000
-64.63110352 -741.67071533 45.97949982 2.000000 2.000000
-30.13640022 -730.78857422 46.43489838 2.000000 2.000000
-55.62269974 -740.28070068 24.34390068 1.000000 1.000000
-74.12560272 -739.73077393 44.22750092 2.000000 2.000000
-77.08740234 -756.43499756 28.99900055 2.000000 2.000000
-84.36840057 -729.98791504 38.67789841 2.000000 2.000000
-75.76640320 -758.58581543 28.68020058 2.000000 2.000000
-25.50169945 -730.94268799 47.35169983 2.000000 2.000000
-38.46559906 -735.42987061 43.37580109 2.000000 2.000000
-56.95270157 -752.18377686 44.78269958 2.000000 2.000000
-79.46980286 -754.51812744 28.96809959 2.000000 2.000000
-58.29199982 -765.27722168 35.87160110 2.000000 2.000000
-72.27449799 -710.89532471 46.38180161 2.000000 2.000000
-84.92810059 -718.42608643 37.59730148 2.000000 2.000000
-82.44170380 -763.53491211 22.10680008 2.000000 2.000000
-58.83929825 -756.41052246 41.97060013 2.000000 2.000000
-34.27690125 -735.82067871 44.02330017 2.000000 2.000000
-73.14689636 -733.11621094 45.96189880 2.000000 2.000000
-49.64160156 -741.23571777 9.15540028 1.000000 1.000000
-70.06199646 -750.77777100 31.61750031 1.000000 1.000000
-84.97779846 -729.14428711 38.70149994 2.000000 2.000000
-55.67539978 -765.28002930 36.74420166 2.000000 2.000000
-68.76210022 -757.75610352 39.79339981 2.000000 2.000000
-46.43960190 -753.90637207 44.72529984 2.000000 2.000000
-82.30960083 -725.67510986 41.40919876 2.000000 2.000000
-90.83959961 -703.89361572 20.95199966 2.000000 2.000000
-95.74299622 -723.66241455 31.71080017 2.000000 2.000000
-86.92600250 -763.23858643 20.22529984 2.000000 2.000000
-71.86969757 -718.93310547 46.30279922 2.000000 2.000000
-79.52500153 -738.67358398 42.70029831 2.000000 2.000000
-81.85030365 -753.96582031 29.15399933 2.000000 2.000000
-90.19999695 -726.06292725 36.53319931 2.000000 2.000000
-60.51459885 -745.41571045 42.83570099 1.000000 1.000000
-47.32080078 -750.56298828 46.18629837 2.000000 2.000000
-59.09090042 -758.28839111 40.89400101 2.000000 2.000000
-89.32890320 -760.11651611 23.95849991 2.000000 2.000000
-83.80789948 -729.68420410 38.94779968 2.000000 2.000000
-36.07500076 -730.11322021 45.81159973 2.000000 2.000000
-57.21039963 -750.78192139 45.38990021 2.000000 2.000000
-79.61109924 -756.94610596 27.91349983 2.000000 2.000000
-87.67790222 -715.86108398 33.77280045 2.000000 2.000000
-69.70970154 -739.97967529 47.19929886 2.000000 2.000000
-58.57529831 -740.21392822 26.47719955 1.000000 1.000000
-46.64479828 -754.37469482 44.39519882 2.000000 2.000000
-78.77169800 -729.47961426 42.45080185 2.000000 2.000000
-54.42819977 -764.81109619 37.27090073 2.000000 2.000000
-88.22579956 -718.50659180 32.54759979 2.000000 2.000000
-52.97570038 -760.70611572 40.57389832 2.000000 2.000000
-79.29850006 -739.66528320 41.90869904 2.000000 2.000000
-87.91020203 -717.71759033 33.11460114 2.000000 2.000000
-78.31330109 -761.50952148 25.74169922 2.000000 2.000000
-86.26399994 -725.49688721 38.98310089 2.000000 2.000000
-75.62470245 -754.77697754 29.82729912 2.000000 2.000000
-90.31479645 -726.61401367 36.45019913 2.000000 2.000000
-89.54779816 -712.41058350 30.05380058 2.000000 2.000000
-21.12249947 -727.69287109 48.62089920 2.000000 2.000000
-73.07089996 -743.33129883 42.92359924 2.000000 2.000000
-46.38520050 -753.43927002 45.16979980 2.000000 2.000000
-77.07360077 -735.43518066 45.03969955 2.000000 2.000000
-89.68779755 -703.30627441 23.00239944 2.000000 2.000000
-87.82420349 -761.77020264 22.41950035 2.000000 2.000000
-59.32379913 -768.85638428 31.09950066 2.000000 2.000000
-92.55370331 -707.65332031 20.86980057 2.000000 2.000000
-63.28430176 -757.93792725 40.59130096 2.000000 2.000000
-62.10800171 -750.59167480 44.68059921 2.000000 2.000000
-53.89410019 -769.34002686 32.35760117 2.000000 2.000000
-78.07420349 -723.21997070 42.38259888 2.000000 2.000000
-75.98239899 -720.80187988 44.26229858 2.000000 2.000000
-79.30829620 -706.33648682 42.17860031 2.000000 2.000000
-72.57659912 -718.57092285 46.03960037 2.000000 2.000000
-68.06169891 -752.42181396 45.69979858 2.000000 2.000000
-84.82920074 -762.11389160 22.51880074 2.000000 2.000000
-88.14990234 -725.52307129 38.02339935 2.000000 2.000000
-88.28659821 -723.23907471 36.52600098 2.000000 2.000000
-60.38259888 -760.14941406 39.15259933 2.000000 2.000000
-81.24610138 -760.73181152 25.01880074 2.000000 2.000000
-61.70009995 -739.11602783 45.07669830 2.000000 2.000000
-64.02880096 -744.34851074 29.84399986 1.000000 1.000000
-61.85800171 -753.28448486 43.77379990 2.000000 2.000000
-80.26480103 -718.71881104 41.17869949 2.000000 2.000000
-55.63349915 -739.29907227 20.15570068 1.000000 1.000000
-56.95019913 -763.55328369 38.12080002 2.000000 2.000000
-73.72049713 -726.26727295 44.17190170 2.000000 2.000000
-91.67790222 -712.55572510 25.78400040 2.000000 2.000000
-75.86689758 -743.81628418 41.42670059 2.000000 2.000000
-42.59310150 -752.47949219 45.37730026 2.000000 2.000000
-76.44100189 -713.15661621 44.32740021 2.000000 2.000000
-68.18599701 -731.40881348 43.83129883 1.000000 1.000000
-70.23789978 -741.14489746 45.74420166 2.000000 2.000000
-89.19249725 -711.14068604 29.73789978 2.000000 2.000000
-74.20809937 -726.87811279 43.88669968 2.000000 2.000000
-82.63230133 -709.46710205 36.08509827 2.000000 2.000000
-66.42610168 -755.77978516 41.90309906 2.000000 2.000000
-77.31849670 -758.60119629 27.91850090 2.000000 2.000000
-63.31389999 -730.26239014 49.69160080 2.000000 2.000000
-53.77479935 -762.74432373 38.67810059 2.000000 2.000000
-89.43019867 -717.93438721 30.90099907 2.000000 2.000000
-74.55300140 -733.04278564 46.15990067 2.000000 2.000000
-84.68640137 -719.63397217 38.16709900 2.000000 2.000000
-75.25669861 -751.14941406 31.42239952 2.000000 2.000000
-23.29509926 -732.74572754 47.52180099 2.000000 2.000000
-81.87660217 -763.45129395 22.70269966 2.000000 2.000000
-67.64779663 -739.41040039 47.09700012 2.000000 2.000000
-48.94010162 -750.91967773 46.03670120 2.000000 2.000000
-36.85459900 -737.83538818 43.00989914 2.000000 2.000000
-67.06600189 -758.19738770 39.76060104 2.000000 2.000000
-81.17389679 -725.93420410 41.94449997 2.000000 2.000000
-76.87719727 -743.12951660 41.38510132 2.000000 2.000000
-83.48979950 -726.65698242 40.80319977 2.000000 2.000000
-58.15449905 -740.03570557 28.21159935 1.000000 1.000000
-82.67130280 -762.24987793 23.20120049 2.000000 2.000000
-47.08860016 -740.70141602 1.48389995 1.000000 1.000000
-88.04000092 -710.56201172 31.07110023 2.000000 2.000000
-78.37020111 -761.07061768 26.03930092 2.000000 2.000000
-77.81729889 -729.91229248 43.48509979 2.000000 2.000000
-84.06549835 -763.49139404 21.40500069 2.000000 2.000000
-75.79630280 -751.46331787 31.29649925 2.000000 2.000000
-96.96659851 -725.90582275 31.43169975 2.000000 2.000000
-33.21170044 -736.56872559 43.69129944 2.000000 2.000000
-55.95429993 -767.30218506 34.37020111 2.000000 2.000000
-61.24330139 -760.25549316 38.66370010 2.000000 2.000000
-87.61910248 -716.45202637 34.30670166 2.000000 2.000000
-77.63339996 -753.60101318 29.74180031 2.000000 2.000000
-78.78040314 -722.95031738 42.09909821 2.000000 2.000000
-54.04180145 -760.08837891 40.83100128 2.000000 2.000000
-90.32270050 -709.40551758 26.78400040 2.000000 2.000000
-46.26800156 -754.31262207 44.48849869 2.000000 2.000000
-31.15970039 -736.84661865 43.13999939 2.000000 2.000000
-47.10480118 -741.37432861 1.51049995 1.000000 1.000000
-78.62049866 -756.81158447 28.19720078 2.000000 2.000000
-86.48870087 -763.69549561 19.84799957 2.000000 2.000000
-55.29130173 -765.00262451 37.23369980 2.000000 2.000000
-84.14119720 -720.48791504 38.72620010 2.000000 2.000000
-80.28600311 -761.39422607 24.94129944 2.000000 2.000000
-88.06770325 -711.04168701 31.38109970 2.000000 2.000000
-80.28350067 -730.01818848 40.92060089 2.000000 2.000000
-90.72399902 -761.06817627 22.68440056 2.000000 2.000000
-62.48630142 -735.80792236 39.20709991 1.000000 1.000000
-83.90579987 -729.46710205 38.99010086 2.000000 2.000000
-89.27050018 -723.55181885 36.04980087 2.000000 2.000000
-60.05429840 -739.37121582 45.48669815 1.000000 1.000000
-83.68070221 -763.34649658 21.76910019 2.000000 2.000000
-83.27420044 -759.12738037 25.57159996 2.000000 2.000000
-79.07319641 -712.55639648 42.32369995 2.000000 2.000000
-57.80699921 -769.16717529 31.24930000 2.000000 2.000000
-75.01470184 -747.06408691 39.93769836 2.000000 2.000000
-85.84980011 -760.48229980 23.96269989 2.000000 2.000000
-56.27949905 -767.62322998 33.81880188 2.000000 2.000000
-75.57520294 -739.79882813 43.51319885 2.000000 2.000000
-59.44319916 -762.82641602 37.87500000 2.000000 2.000000
-69.00509644 -760.00531006 37.77280045 2.000000 2.000000
-83.16079712 -715.52581787 37.92309952 2.000000 2.000000
-60.13029861 -761.80212402 38.12419891 2.000000 2.000000
-87.29010010 -726.11041260 38.39950180 2.000000 2.000000
-84.80699921 -718.83917236 37.86600113 2.000000 2.000000
-79.34709930 -761.91027832 24.98679924 2.000000 2.000000
-40.13470078 -731.75427246 44.82149887 2.000000 2.000000
-91.54100037 -762.96722412 19.97030067 2.000000 2.000000
-60.85200119 -765.79052734 34.17079926 2.000000 2.000000
-84.35009766 -762.00708008 22.78079987 2.000000 2.000000
-85.93289948 -727.79321289 38.76079941 2.000000 2.000000
-72.21549988 -713.76391602 46.20660019 2.000000 2.000000
-74.52940369 -754.57299805 30.30500031 2.000000 2.000000
-84.89600372 -756.61828613 26.73509979 2.000000 2.000000
-75.46589661 -708.08837891 45.06140137 2.000000 2.000000
-74.01490021 -737.92608643 44.53720093 2.000000 2.000000
-57.21920013 -761.76611328 39.60589981 2.000000 2.000000
-55.32160187 -768.37518311 33.15349960 2.000000 2.000000
-55.23749924 -757.00231934 42.64179993 2.000000 2.000000
-41.40859985 -736.80352783 42.19860077 2.000000 2.000000
-33.02280045 -731.68701172 45.41640091 2.000000 2.000000
-84.36109924 -708.80780029 33.92490005 2.000000 2.000000
-54.03990173 -769.33752441 31.96699905 2.000000 2.000000
-57.54410172 -764.97607422 36.56039810 2.000000 2.000000
-68.93329620 -756.62207031 41.07979965 2.000000 2.000000
-80.11239624 -722.17541504 41.53279877 2.000000 2.000000
-77.72920227 -748.15521240 37.61209869 2.000000 2.000000
-86.95850372 -723.84277344 38.14500046 2.000000 2.000000
-90.12339783 -704.25628662 22.49419975 2.000000 2.000000
-69.12229919 -755.96362305 41.64479828 2.000000 2.000000
-76.23110199 -717.36132813 44.53779984 2.000000 2.000000
-73.07530212 -737.28857422 44.84909821 2.000000 2.000000
-76.19660187 -758.39642334 28.40970039 2.000000 2.000000
-66.57070160 -759.98138428 38.08959961 2.000000 2.000000
-87.29709625 -712.12902832 33.16899872 2.000000 2.000000
-83.30780029 -759.01501465 25.80100060 2.000000 2.000000
-18.84869957 -730.33312988 48.45429993 2.000000 2.000000
-74.16120148 -718.67138672 45.56159973 2.000000 2.000000
-55.74399948 -768.85028076 32.11149979 2.000000 2.000000
-28.39010048 -733.35870361 46.11280060 2.000000 2.000000
-92.89739990 -710.84411621 23.03050041 2.000000 2.000000
-77.40409851 -739.20220947 43.10810089 2.000000 2.000000
-83.38710022 -709.56341553 35.26139832 2.000000 2.000000
-81.34590149 -762.60137939 23.41920090 2.000000 2.000000
-29.43339920 -728.84460449 47.50159836 2.000000 2.000000
-85.51840210 -717.11090088 36.89810181 2.000000 2.000000
-79.30069733 -706.41168213 42.11679840 2.000000 2.000000
-85.95980072 -708.31219482 31.81010056 2.000000 2.000000
-65.31330109 -745.59808350 30.43379974 1.000000 1.000000
-68.87850189 -730.67089844 44.22340012 1.000000 1.000000
-84.11599731 -755.99731445 27.35269928 2.000000 2.000000
-56.13980103 -749.22290039 46.09930038 2.000000 2.000000
-67.55460358 -738.23907471 47.08599854 2.000000 2.000000
-87.08260345 -729.69458008 37.54740143 2.000000 2.000000
-63.71450043 -729.54217529 49.63199997 2.000000 2.000000
-74.11219788 -712.81347656 45.77819824 2.000000 2.000000
-33.98469925 -737.12957764 43.35710144 2.000000 2.000000
-85.47709656 -717.26837158 36.90330124 2.000000 2.000000
-75.43969727 -740.37902832 43.10770035 2.000000 2.000000
-86.84750366 -760.86077881 23.42600060 2.000000 2.000000
-86.52860260 -758.08532715 25.67440033 2.000000 2.000000
-80.68730164 -726.18310547 42.04470062 2.000000 2.000000
-59.05250168 -747.14831543 44.50770187 2.000000 2.000000
-90.57460022 -721.99951172 34.52299881 2.000000 2.000000
-88.27110291 -719.04272461 32.33250046 2.000000 2.000000
-76.22989655 -753.95892334 30.06699944 2.000000 2.000000
-61.19300079 -764.43591309 35.30619812 2.000000 2.000000
-88.76640320 -706.84112549 26.69840050 2.000000 2.000000
-82.68520355 -709.48406982 36.03960037 2.000000 2.000000
-84.55329895 -726.10632324 40.22650146 2.000000 2.000000
-22.59670067 -734.50402832 46.91930008 2.000000 2.000000
-58.34669876 -724.76892090 52.84090042 2.000000 2.000000
-59.13079834 -768.30682373 31.87649918 2.000000 2.000000
-72.58509827 -750.78057861 31.62299919 2.000000 2.000000
-73.40119934 -721.63970947 45.67110062 2.000000 2.000000
-87.20379639 -758.96618652 24.88310051 2.000000 2.000000
-76.17939758 -735.46337891 45.15850067 2.000000 2.000000
-86.85729980 -762.70788574 21.13409996 2.000000 2.000000
-72.86789703 -714.09332275 46.00339890 2.000000 2.000000
-87.51740265 -763.91412354 18.24559975 2.000000 2.000000
-55.15859985 -767.88812256 33.60729980 2.000000 2.000000
-95.38719940 -727.00921631 32.89720154 2.000000 2.000000
-77.51860046 -752.18048096 30.53870010 2.000000 2.000000
-87.62819672 -713.64349365 33.00690079 2.000000 2.000000
-54.84759903 -763.01489258 38.63719940 2.000000 2.000000
-87.76930237 -705.58099365 27.67819977 2.000000 2.000000
-86.87239838 -710.96527100 32.64960098 2.000000 2.000000
-70.93949890 -734.75469971 45.51610184 2.000000 2.000000
-79.06670380 -756.48687744 28.39119911 2.000000 2.000000
-59.88740158 -741.73199463 28.28479958 1.000000 1.000000
-57.23450089 -757.92492676 41.71400070 2.000000 2.000000
-75.81839752 -728.89337158 44.48640060 2.000000 2.000000
-77.77469635 -741.12677002 41.90179825 2.000000 2.000000
-67.15820313 -756.53521729 41.20500183 2.000000 2.000000
-55.17940140 -767.01947021 34.70330048 2.000000 2.000000
-55.11460114 -763.02197266 38.67599869 2.000000 2.000000
-40.48619843 -736.52319336 42.56689835 2.000000 2.000000
-78.18219757 -722.14337158 42.55239868 2.000000 2.000000
-72.79010010 -752.63098145 31.10980034 2.000000 2.000000
-42.84009933 -737.41021729 41.43529892 2.000000 2.000000
-86.21430206 -763.02972412 20.85740089 2.000000 2.000000
-32.47460175 -731.66479492 45.59389877 2.000000 2.000000
-57.59930038 -766.72149658 34.37300110 2.000000 2.000000
-85.21569824 -709.24078369 33.03699875 2.000000 2.000000
-76.90950012 -759.64672852 27.61109924 2.000000 2.000000
-54.82640076 -738.44891357 29.88220024 1.000000 1.000000
-77.17220306 -722.81988525 43.11909866 2.000000 2.000000
-41.99359894 -735.78479004 42.17269897 2.000000 2.000000
-93.19799805 -724.56512451 33.41299820 2.000000 2.000000
-46.98550034 -740.46771240 -0.14929999 1.000000 1.000000
-77.17630005 -752.74481201 30.23159981 2.000000 2.000000
-89.57089996 -711.34918213 29.31789970 2.000000 2.000000
-73.64920044 -740.41497803 44.42509842 2.000000 2.000000
-81.70200348 -761.91302490 24.00860023 2.000000 2.000000
-59.68510056 -740.82257080 43.75740051 1.000000 1.000000
-59.30920029 -738.79821777 35.06900024 1.000000 1.000000
-84.58599854 -758.08361816 25.89979935 2.000000 2.000000
-59.58639908 -769.17651367 30.75740051 2.000000 2.000000
-27.23460007 -734.32818604 45.94860077 2.000000 2.000000
-59.86370087 -762.50921631 37.95589828 2.000000 2.000000
-61.53499985 -765.32629395 34.47900009 2.000000 2.000000
-69.58630371 -761.44360352 36.27009964 2.000000 2.000000
-67.76699829 -729.29187012 48.21149826 2.000000 2.000000
-49.63719940 -741.03497314 8.04769993 1.000000 1.000000
-59.24760056 -739.35961914 46.98830032 1.000000 1.000000
-77.59449768 -719.56097412 43.15000153 2.000000 2.000000
-86.41329956 -704.33648682 28.98270035 2.000000 2.000000
-60.40100098 -741.77581787 26.95899963 1.000000 1.000000
-75.98819733 -711.25646973 44.74069977 2.000000 2.000000
-70.96109772 -743.70141602 44.10760117 2.000000 2.000000
-54.70989990 -758.07342529 42.19039917 2.000000 2.000000
-85.86679840 -707.96038818 31.69129944 2.000000 2.000000
-63.45249939 -730.00817871 49.67739868 2.000000 2.000000
-25.27580070 -734.83721924 46.15570068 2.000000 2.000000
-83.57309723 -711.22589111 35.81669998 2.000000 2.000000
-62.09249878 -735.94451904 40.09410095 1.000000 1.000000
-48.68299866 -737.01422119 37.26359940 1.000000 1.000000
-55.73369980 -767.79791260 33.74250031 2.000000 2.000000
-20.71699905 -731.27069092 48.21409988 2.000000 2.000000
-78.91780090 -713.50231934 42.41590118 2.000000 2.000000
-81.13330078 -756.11828613 27.90089989 2.000000 2.000000
-37.12960052 -737.58239746 43.04579926 2.000000 2.000000
-85.64779663 -730.68377686 37.74829865 2.000000 2.000000
-89.52330017 -715.04412842 30.56349945 2.000000 2.000000
-87.27600098 -706.42718506 28.93860054 2.000000 2.000000
-85.00949860 -763.74401855 20.57150078 2.000000 2.000000
-86.68820190 -760.42181396 23.99959946 2.000000 2.000000
-78.08059692 -730.36267090 43.24369812 2.000000 2.000000
-71.64399719 -717.79052734 46.37689972 2.000000 2.000000
-88.71450043 -727.82568359 36.84749985 2.000000 2.000000
-23.90830040 -734.51428223 46.56449890 2.000000 2.000000
-91.65059662 -763.42187500 19.31920052 2.000000 2.000000
-72.53710175 -756.65557861 30.48660088 2.000000 2.000000
-55.30339813 -767.07727051 34.61830139 2.000000 2.000000
-56.20230103 -745.51251221 48.96580124 2.000000 2.000000
-88.72599792 -724.51568604 37.41849899 2.000000 2.000000
-47.93690109 -738.21191406 37.56190109 1.000000 1.000000
-60.13999939 -737.70892334 35.37060165 1.000000 1.000000
-86.29280090 -716.27801514 35.87570190 2.000000 2.000000
-80.05840302 -722.62628174 41.67959976 2.000000 2.000000
-77.51629639 -729.08227539 43.56689835 2.000000 2.000000
-64.40180206 -752.28247070 44.50059891 2.000000 2.000000
-43.62089920 -750.51818848 46.24649811 2.000000 2.000000
-68.98780060 -738.70880127 47.14780045 2.000000 2.000000
-47.44260025 -754.49938965 44.31760025 2.000000 2.000000
-84.53420258 -715.57641602 36.87269974 2.000000 2.000000
-79.59690094 -729.99047852 41.65639877 2.000000 2.000000
-39.41210175 -732.70788574 44.39899826 2.000000 2.000000
-39.25609970 -736.73931885 42.86729813 2.000000 2.000000
-58.07249832 -766.61578369 34.53369904 2.000000 2.000000
-58.07550049 -767.54382324 33.19689941 2.000000 2.000000
-39.56449890 -733.13189697 44.02090073 2.000000 2.000000
-78.26979828 -752.14807129 30.41419983 2.000000 2.000000
-74.90329742 -705.46508789 45.22040176 2.000000 2.000000
-91.90219879 -717.30120850 26.94930077 2.000000 2.000000
-31.96170044 -731.36248779 45.85820007 2.000000 2.000000
-85.20709991 -729.44677734 38.56650162 2.000000 2.000000
-82.08149719 -728.54748535 40.75859833 2.000000 2.000000
-62.65259933 -733.00512695 49.51530075 2.000000 2.000000
-65.47090149 -759.77337646 38.51869965 2.000000 2.000000
-89.53520203 -717.97808838 30.57360077 2.000000 2.000000
-54.03770065 -759.32647705 41.47359848 2.000000 2.000000
-85.81349945 -707.91082764 31.66399956 2.000000 2.000000
-72.00119781 -736.39367676 45.69250107 2.000000 2.000000
-55.89020157 -751.94500732 45.27450180 2.000000 2.000000
-29.45660019 -734.77941895 45.28749847 2.000000 2.000000
-91.80439758 -715.78967285 26.88170052 2.000000 2.000000
-59.03129959 -754.26141357 42.90449905 2.000000 2.000000
-59.87609863 -740.55932617 44.37210083 1.000000 1.000000
-50.19049835 -737.51092529 34.05400085 1.000000 1.000000
-46.28670120 -753.68878174 44.90169907 2.000000 2.000000
-75.96549988 -741.63238525 42.47079849 2.000000 2.000000
-89.48370361 -717.64916992 30.73590088 2.000000 2.000000
-83.97250366 -761.86071777 23.14690018 2.000000 2.000000
-86.30439758 -714.58990479 35.00519943 2.000000 2.000000
-86.67659760 -761.90808105 22.14220047 2.000000 2.000000
-76.91419983 -756.40838623 29.06509972 2.000000 2.000000
-57.91199875 -763.08087158 38.19990158 2.000000 2.000000
-83.33209991 -730.23248291 38.75310135 2.000000 2.000000
-34.47700119 -737.02368164 43.37189865 2.000000 2.000000
-68.05419922 -759.22851563 38.63909912 2.000000 2.000000
-54.56010056 -739.85198975 18.27650070 1.000000 1.000000
-68.61489868 -755.82641602 41.86849976 2.000000 2.000000
-60.67430115 -764.37622070 35.69260025 2.000000 2.000000
-77.13030243 -726.29217529 43.45669937 2.000000 2.000000
-27.19190025 -729.93719482 47.18750000 2.000000 2.000000
-75.90129852 -709.78747559 44.74050140 2.000000 2.000000
-48.42689896 -739.38647461 10.09290028 1.000000 1.000000
-56.17699814 -763.49908447 38.20560074 2.000000 2.000000
-77.61740112 -728.59509277 43.38100052 2.000000 2.000000
-60.74610138 -726.25640869 51.66540146 2.000000 2.000000
-59.92139816 -751.22711182 44.17910004 2.000000 2.000000
-61.09640121 -756.65161133 41.32339859 2.000000 2.000000
-21.49180031 -731.75811768 48.07249832 2.000000 2.000000
-79.36139679 -761.91601563 24.85510063 2.000000 2.000000
-71.94000244 -742.54357910 43.83800125 2.000000 2.000000
-65.24330139 -755.63580322 42.12689972 2.000000 2.000000
-16.39480019 -729.95727539 49.09360123 2.000000 2.000000
-39.48780060 -733.54779053 43.88510132 2.000000 2.000000
-85.63529968 -715.32708740 35.82820129 2.000000 2.000000
-86.92880249 -717.78271484 34.83480072 2.000000 2.000000
-86.87699890 -761.76092529 22.26280022 2.000000 2.000000
-87.85099792 -717.05090332 33.47109985 2.000000 2.000000
-56.42530060 -761.37957764 40.02719879 2.000000 2.000000
-91.43119812 -711.18682861 25.87220001 2.000000 2.000000
-86.43139648 -725.87402344 38.88800049 2.000000 2.000000
-52.95420074 -746.15637207 48.60430145 2.000000 2.000000
-86.35449982 -761.49792480 22.78610039 2.000000 2.000000
-75.12619781 -737.82818604 44.45959854 2.000000 2.000000
-74.54129791 -733.63751221 45.87990189 2.000000 2.000000
-85.48049927 -758.06561279 25.91740036 2.000000 2.000000
-53.97980118 -771.03802490 29.66349983 2.000000 2.000000
-90.35160065 -704.25708008 21.96759987 2.000000 2.000000
-57.13830185 -746.96972656 47.06850052 2.000000 2.000000
-81.58290100 -723.30871582 41.03820038 2.000000 2.000000
-72.70819855 -712.60101318 46.15349960 2.000000 2.000000
-92.70069885 -724.83666992 34.47200012 2.000000 2.000000
-84.25420380 -729.34991455 39.03630066 2.000000 2.000000
-29.85969925 -731.98022461 46.15689850 2.000000 2.000000
-93.08860016 -725.44140625 34.45339966 2.000000 2.000000
-22.32839966 -732.43109131 47.75659943 2.000000 2.000000
-83.53070068 -711.24249268 35.89110184 2.000000 2.000000
-55.55950165 -762.16870117 39.53639984 2.000000 2.000000
-91.01029968 -717.77178955 28.41239929 2.000000 2.000000
-59.73939896 -740.75451660 27.25099945 1.000000 1.000000
-19.81270027 -733.14782715 48.18339920 2.000000 2.000000
-71.23829651 -729.94970703 43.46020126 1.000000 1.000000
-64.43039703 -758.05487061 40.31119919 2.000000 2.000000
-36.12879944 -737.68621826 43.12609863 2.000000 2.000000
-84.68099976 -715.57708740 36.86029816 2.000000 2.000000
-91.77369690 -710.37872314 24.74889946 2.000000 2.000000
-77.61689758 -752.40930176 30.36800003 2.000000 2.000000
-54.59960175 -750.57788086 46.02899933 2.000000 2.000000
-71.91950226 -739.54608154 45.36149979 2.000000 2.000000
-78.12460327 -713.31530762 42.98429871 2.000000 2.000000
-79.05110168 -709.22991943 42.26639938 2.000000 2.000000
-73.57849884 -720.91387939 45.54299927 2.000000 2.000000
-78.40380096 -744.45220947 39.80749893 2.000000 2.000000
-79.02570343 -727.25457764 42.80830002 2.000000 2.000000
-58.75090027 -765.65881348 35.10469818 2.000000 2.000000
-84.15229797 -758.42730713 25.83200073 2.000000 2.000000
-83.97689819 -729.73358154 38.81399918 2.000000 2.000000
-59.97119904 -738.62341309 32.38510132 1.000000 1.000000
-87.94000244 -762.23181152 21.66810036 2.000000 2.000000
-67.35549927 -759.64208984 38.22249985 2.000000 2.000000
-61.61000061 -766.21221924 33.58919907 2.000000 2.000000
-85.15869904 -711.83697510 34.64319992 2.000000 2.000000
-81.97689819 -760.60180664 24.98369980 2.000000 2.000000
-73.12100220 -738.55889893 45.07419968 2.000000 2.000000
-72.25289917 -713.66448975 46.21509933 2.000000 2.000000
-48.26390076 -751.69580078 45.87559891 2.000000 2.000000
-76.17590332 -712.89849854 44.65119934 2.000000 2.000000
-69.90769958 -739.33532715 47.27709961 2.000000 2.000000
-58.81610107 -753.33697510 43.54349899 2.000000 2.000000
-88.29119873 -762.10351563 21.71299934 2.000000 2.000000
-56.48839951 -764.40368652 37.45920181 2.000000 2.000000
-53.80599976 -762.35308838 38.94359970 2.000000 2.000000
-60.38449860 -740.78521729 43.56729889 1.000000 1.000000
-52.82149887 -753.26208496 45.11220169 2.000000 2.000000
-88.95310211 -727.16351318 37.09049988 2.000000 2.000000
-83.37039948 -761.84991455 23.18639946 2.000000 2.000000
-60.94940186 -760.12231445 38.92660141 2.000000 2.000000
-77.00289917 -729.07397461 43.92089844 2.000000 2.000000
-61.53530121 -742.21508789 44.79330063 1.000000 1.000000
-53.01639938 -761.86560059 39.60960007 2.000000 2.000000
-23.02989960 -731.93920898 47.68299866 2.000000 2.000000
-42.53639984 -737.18548584 41.63349915 2.000000 2.000000
-79.65529633 -762.04187012 24.61689949 2.000000 2.000000
-56.97380066 -746.45068359 47.61830139 2.000000 2.000000
-33.82229996 -735.94281006 43.86259842 2.000000 2.000000
-79.03299713 -718.58532715 41.86560059 2.000000 2.000000
-63.16329956 -729.89178467 49.85020065 2.000000 2.000000
-61.53350067 -766.25921631 33.39469910 2.000000 2.000000
-83.62290192 -761.77441406 23.22710037 2.000000 2.000000
-94.02770233 -723.69177246 32.57989883 2.000000 2.000000
-53.36719894 -740.35083008 17.69420052 1.000000 1.000000
-84.65660095 -729.22229004 38.85919952 2.000000 2.000000
-82.85140228 -759.47851563 25.32110023 2.000000 2.000000
-77.54650116 -760.25402832 27.02790070 2.000000 2.000000
-55.61330032 -751.33160400 45.47819901 2.000000 2.000000
-52.57609940 -760.57971191 40.76729965 2.000000 2.000000
-89.72850037 -707.97869873 26.43560028 2.000000 2.000000
-45.56349945 -738.68078613 -1.89929998 1.000000 1.000000
-84.04759979 -710.06402588 34.75709915 2.000000 2.000000
-63.42919922 -744.82312012 29.89959908 1.000000 1.000000
-63.51890182 -733.59118652 48.69480133 2.000000 2.000000
-82.76670074 -710.42492676 36.15610123 2.000000 2.000000
-31.50160027 -737.00988770 43.04959869 2.000000 2.000000
-79.17790222 -752.49139404 29.78370094 2.000000 2.000000
-94.65409851 -728.52697754 33.02360153 2.000000 2.000000
-79.22399902 -745.41601563 38.57780075 2.000000 2.000000
-91.21589661 -725.81567383 35.78509903 2.000000 2.000000
-82.12590027 -726.97692871 41.22969818 2.000000 2.000000
-86.20400238 -715.35852051 35.58720016 2.000000 2.000000
-59.51929855 -749.89422607 43.99309921 2.000000 2.000000
-70.69819641 -741.13677979 45.58990097 2.000000 2.000000
-72.12480164 -742.62060547 43.71680069 2.000000 2.000000
-89.00129700 -724.04290771 36.46490097 2.000000 2.000000
-59.55130005 -753.31500244 43.42079926 2.000000 2.000000
-68.30200195 -731.51037598 44.34510040 1.000000 1.000000
-90.92389679 -724.10083008 35.13479996 2.000000 2.000000
-81.73629761 -762.93939209 23.00849915 2.000000 2.000000
-58.08639908 -758.36657715 41.23440170 2.000000 2.000000
-82.18250275 -759.56408691 25.55599976 2.000000 2.000000
-55.59349823 -767.74627686 33.67100143 2.000000 2.000000
-85.73329926 -761.51049805 22.81509972 2.000000 2.000000
-64.54550171 -757.96887207 40.44049835 2.000000 2.000000
-77.94480133 -746.09930420 39.11169815 2.000000 2.000000
-59.32860184 -753.85241699 43.07389832 2.000000 2.000000
-70.96859741 -743.46112061 44.25469971 2.000000 2.000000
-85.72940063 -760.02069092 24.72439957 2.000000 2.000000
-77.74810028 -748.07092285 37.65739822 2.000000 2.000000
-82.38420105 -755.96020508 27.89209938 2.000000 2.000000
-87.12120056 -722.03991699 36.92689896 2.000000 2.000000
-89.41459656 -760.16387939 23.94630051 2.000000 2.000000
-78.29900360 -706.62792969 42.75759888 2.000000 2.000000
-71.24579620 -743.56341553 43.87390137 2.000000 2.000000
-72.48259735 -745.11077881 41.96730042 2.000000 2.000000
-39.21250153 -733.68328857 43.76470184 2.000000 2.000000
-62.29619980 -726.87719727 51.25609970 2.000000 2.000000
-83.27230072 -763.75921631 21.45669937 2.000000 2.000000
-56.82289886 -766.90747070 34.32030106 2.000000 2.000000
-57.60919952 -747.40270996 46.15069962 2.000000 2.000000
-76.61849976 -754.71038818 29.77050018 2.000000 2.000000
-59.15159988 -753.24530029 43.34719849 2.000000 2.000000
-59.14540100 -760.65527344 39.38339996 2.000000 2.000000
-44.38650131 -739.04528809 -1.98239994 1.000000 1.000000
-46.84769821 -752.54431152 45.62129974 2.000000 2.000000
-80.29440308 -761.06408691 24.98060036 2.000000 2.000000
-60.72769928 -723.12371826 53.40079880 2.000000 2.000000
-92.36340332 -721.49951172 33.42660141 2.000000 2.000000
-43.88090134 -736.88238525 41.12149811 2.000000 2.000000
-78.17569733 -708.95910645 42.97399902 2.000000 2.000000
-60.19639969 -765.86047363 34.23350143 2.000000 2.000000
-53.67580032 -738.07971191 30.68320084 1.000000 1.000000
-45.40380096 -736.47711182 40.15959930 2.000000 2.000000
-45.69010162 -754.08221436 44.62670135 2.000000 2.000000
-52.31570053 -765.13519287 36.85169983 2.000000 2.000000
-92.03600311 -705.34539795 19.89369965 2.000000 2.000000
-55.44359970 -760.97888184 40.11629868 2.000000 2.000000
-81.99800110 -759.63922119 25.69669914 2.000000 2.000000
-60.32180023 -743.73822021 42.63290024 1.000000 1.000000
-61.15200043 -758.71911621 39.81689835 2.000000 2.000000
-82.31490326 -719.64239502 39.68889999 2.000000 2.000000
-53.79520035 -766.87847900 34.93970108 2.000000 2.000000
-60.94530106 -747.30920410 44.83950043 2.000000 2.000000
-56.86029816 -766.20092773 35.36420059 2.000000 2.000000
-79.06710052 -726.61242676 42.77679825 2.000000 2.000000
-73.61150360 -752.28747559 31.09110069 2.000000 2.000000
-59.12160110 -745.99011230 47.11330032 2.000000 2.000000
-84.73690033 -723.73919678 39.30329895 2.000000 2.000000
-54.77550125 -757.77801514 42.35950089 2.000000 2.000000
-41.80690002 -736.06817627 42.13570023 2.000000 2.000000
-75.08560181 -706.87689209 45.12360001 2.000000 2.000000
-54.00889969 -749.48120117 46.36809921 2.000000 2.000000
-85.29560089 -707.24871826 31.95210075 2.000000 2.000000
-57.70429993 -754.82147217 43.28319931 2.000000 2.000000
-76.16249847 -752.27990723 30.64480019 2.000000 2.000000
-83.75650024 -728.71801758 39.44350052 2.000000 2.000000
-63.10229874 -738.94677734 45.21500015 2.000000 2.000000
-58.42110062 -753.78363037 43.43140030 2.000000 2.000000
-93.83930206 -728.36877441 33.65930176 2.000000 2.000000
-56.45840073 -767.04309082 34.38740158 2.000000 2.000000
-57.30189896 -759.11932373 41.00120163 2.000000 2.000000
-77.43039703 -709.84399414 43.38470078 2.000000 2.000000
-27.87770081 -728.66101074 47.79410172 2.000000 2.000000
-67.63510132 -759.53051758 38.36240005 2.000000 2.000000
-57.75279999 -740.71331787 26.86829948 1.000000 1.000000
-84.33989716 -755.37597656 27.80629921 2.000000 2.000000
-76.17990112 -754.55108643 29.92580032 2.000000 2.000000
-66.81189728 -756.64172363 41.22029877 2.000000 2.000000
-72.33550262 -742.95251465 43.29380035 2.000000 2.000000
-55.81769943 -756.16967773 43.24290085 2.000000 2.000000
-78.92019653 -753.95782471 29.20649910 2.000000 2.000000
-81.78350067 -763.12451172 22.82640076 2.000000 2.000000
-77.95950317 -707.51281738 43.01039886 2.000000 2.000000
-75.69090271 -738.71502686 43.90060043 2.000000 2.000000
-25.57600021 -730.64630127 47.36980057 2.000000 2.000000
-49.50930023 -745.99597168 49.29499817 2.000000 2.000000
-75.37770081 -727.28399658 44.14350128 2.000000 2.000000
-25.50419998 -733.34991455 46.77740097 2.000000 2.000000
-24.24950027 -730.82891846 47.63309860 2.000000 2.000000
-59.77009964 -767.18511963 33.09099960 2.000000 2.000000
-85.95870209 -714.00958252 35.29669952 2.000000 2.000000
-75.22389984 -728.08850098 44.41970062 2.000000 2.000000
-89.86350250 -717.56787109 30.21850014 2.000000 2.000000
-55.23220062 -765.35308838 36.55789948 2.000000 2.000000
-58.27099991 -739.25177002 27.81110001 1.000000 1.000000
-69.60130310 -729.73028564 44.29029846 1.000000 1.000000
-68.27490234 -762.00567627 35.98199844 2.000000 2.000000
-87.24849701 -713.63732910 33.62099838 2.000000 2.000000
-62.57640076 -752.70001221 43.93889999 2.000000 2.000000
-80.38079834 -727.14312744 42.17490005 2.000000 2.000000
-59.52909851 -754.62237549 42.75009918 2.000000 2.000000
-53.06949997 -740.37908936 18.23430061 1.000000 1.000000
-54.66099930 -749.58331299 46.25279999 2.000000 2.000000
-81.07649994 -714.82952881 39.41759872 2.000000 2.000000
-83.14910126 -730.27398682 38.73929977 2.000000 2.000000
-74.84899902 -741.95141602 43.00040054 2.000000 2.000000
-68.50810242 -739.00628662 47.08330154 2.000000 2.000000
-33.77280045 -736.65661621 43.62939835 2.000000 2.000000
-84.82510376 -717.80462646 37.48529816 2.000000 2.000000
-97.44670105 -725.14587402 30.99010086 2.000000 2.000000
-30.01659966 -730.69641113 46.50099945 2.000000 2.000000
-33.70380020 -731.30718994 45.36550140 2.000000 2.000000
-79.77390289 -760.39941406 25.75880051 2.000000 2.000000
-87.74019623 -705.64239502 27.67510033 2.000000 2.000000
-76.71649933 -729.14648438 44.23979950 2.000000 2.000000
-81.73280334 -725.22192383 41.64899826 2.000000 2.000000
-76.49739838 -718.66247559 44.25949860 2.000000 2.000000
-49.31269836 -737.59222412 36.33319855 1.000000 1.000000
-72.50309753 -717.48608398 46.18090057 2.000000 2.000000
-87.90090179 -707.27862549 28.37800026 2.000000 2.000000
-82.98110199 -728.24932861 40.23529816 2.000000 2.000000
-57.89429855 -747.48712158 45.96250153 2.000000 2.000000
-78.27780151 -729.01647949 42.91479874 2.000000 2.000000
-29.87590027 -728.79351807 47.44260025 2.000000 2.000000
-53.78350067 -769.14538574 32.39599991 2.000000 2.000000
-45.53170013 -754.21057129 44.50690079 2.000000 2.000000
-73.23130035 -723.29589844 45.54700089 2.000000 2.000000
-70.78679657 -740.40332031 45.81320190 2.000000 2.000000
-84.52850342 -764.48272705 20.29030037 2.000000 2.000000
-46.33100128 -753.30877686 45.13190079 2.000000 2.000000
-71.01090240 -737.61291504 46.60100174 2.000000 2.000000
-74.89810181 -758.04742432 28.99930000 2.000000 2.000000
-86.55879974 -713.41180420 34.49980164 2.000000 2.000000
-81.45639801 -726.60241699 41.63990021 2.000000 2.000000
-54.45040131 -738.89007568 30.87280083 1.000000 1.000000
-64.26300049 -744.83612061 29.81080055 1.000000 1.000000
-97.24130249 -725.58569336 31.20689964 2.000000 2.000000
-66.85119629 -738.65917969 47.07030106 2.000000 2.000000
-71.46379852 -742.29412842 44.46089935 2.000000 2.000000
-53.49060059 -761.42437744 39.99670029 2.000000 2.000000
-74.97290039 -754.10247803 30.19239998 2.000000 2.000000
-87.45230103 -763.46087646 19.17049980 2.000000 2.000000
-62.76520157 -736.11541748 38.24280167 1.000000 1.000000
-76.67140198 -753.35272217 30.10610008 2.000000 2.000000
-56.12239838 -739.45031738 22.43939972 1.000000 1.000000
-74.55210114 -714.03308105 45.56250000 2.000000 2.000000
-60.08810043 -729.06701660 50.66839981 2.000000 2.000000
-29.62879944 -729.60571289 47.06370163 2.000000 2.000000
-63.95199966 -752.51422119 44.38809967 2.000000 2.000000
-49.38090134 -747.88623047 47.70289993 2.000000 2.000000
-74.12519836 -715.80267334 45.67179871 2.000000 2.000000
-67.95649719 -761.88067627 36.21310043 2.000000 2.000000
-77.75299835 -736.31549072 44.63470078 2.000000 2.000000
-53.77109909 -738.09741211 30.34580040 1.000000 1.000000
-83.91030121 -759.56109619 25.11809921 2.000000 2.000000
-80.79319763 -719.47808838 40.81050110 2.000000 2.000000
-57.05810165 -752.53759766 44.60350037 2.000000 2.000000
-43.29899979 -752.50567627 45.37469864 2.000000 2.000000
-74.18840027 -723.54321289 44.77000046 2.000000 2.000000
-90.36129761 -704.77362061 22.19580078 2.000000 2.000000
-77.06210327 -739.92047119 42.89149857 2.000000 2.000000
-83.20950317 -725.24511719 40.94580078 2.000000 2.000000
-75.66709900 -758.63146973 28.51009941 2.000000 2.000000
-54.50099945 -745.35528564 50.20840073 2.000000 2.000000
-75.13140106 -715.73962402 45.26549911 2.000000 2.000000
-85.05709839 -761.69598389 22.91769981 2.000000 2.000000
-54.41680145 -762.90307617 38.67259979 2.000000 2.000000
-89.03549957 -714.78942871 31.40080070 2.000000 2.000000
-78.05460358 -730.46887207 43.21580124 2.000000 2.000000
-82.70829773 -710.21130371 36.20869827 2.000000 2.000000
-88.08489990 -762.67297363 21.00309944 2.000000 2.000000
-61.22669983 -742.76147461 28.70980072 1.000000 1.000000
-69.74220276 -758.60791016 38.71239853 2.000000 2.000000
-77.40760040 -730.67852783 43.86410141 2.000000 2.000000
-52.89599991 -767.21337891 34.92610168 2.000000 2.000000
-84.21140289 -763.52581787 21.21719933 2.000000 2.000000
-79.63909912 -728.27789307 42.33769989 2.000000 2.000000
-33.32059860 -732.57641602 45.21009827 2.000000 2.000000
-59.67409897 -742.41448975 42.36759949 1.000000 1.000000
-84.30529785 -761.47637939 23.45610046 2.000000 2.000000
-82.83689880 -761.44531250 23.80470085 2.000000 2.000000
-74.34040070 -714.12408447 45.61510086 2.000000 2.000000
-77.25070190 -707.50598145 43.54919815 2.000000 2.000000
-79.92089844 -762.20251465 24.50390053 2.000000 2.000000
-71.64969635 -713.80407715 46.34180069 2.000000 2.000000
-62.97060013 -750.32952881 45.15560150 2.000000 2.000000
-74.05930328 -719.88507080 45.49660110 2.000000 2.000000
-28.09480095 -734.10021973 45.90129852 2.000000 2.000000
-40.99029922 -736.60742188 42.38389969 2.000000 2.000000
-93.06659698 -706.32751465 19.51110077 2.000000 2.000000
-27.43210030 -729.78509521 47.18759918 2.000000 2.000000
-85.69329834 -763.34161377 20.82259941 2.000000 2.000000
-52.52819824 -749.85418701 46.32239914 2.000000 2.000000
-92.69190216 -722.87860107 33.11320114 2.000000 2.000000
-86.85800171 -718.71252441 34.93949890 2.000000 2.000000
-76.72219849 -720.52758789 43.72010040 2.000000 2.000000
-78.20279694 -756.87799072 28.33889961 2.000000 2.000000
-87.82409668 -762.99291992 20.04319954 2.000000 2.000000
-74.86399841 -757.95172119 29.04789925 2.000000 2.000000
-21.39949989 -728.11157227 48.60879898 2.000000 2.000000
-94.56600189 -722.75561523 32.20849991 2.000000 2.000000
-63.96730042 -753.44531250 43.92139816 2.000000 2.000000
-19.80229950 -732.65301514 48.21689987 2.000000 2.000000
-43.91320038 -734.67877197 43.40290070 2.000000 2.000000
-27.04820061 -732.54608154 46.67350006 2.000000 2.000000
-36.17810059 -737.76898193 43.13000107 2.000000 2.000000
-27.46450043 -733.16870117 46.47389984 2.000000 2.000000
-63.11360168 -743.71771240 29.38739967 1.000000 1.000000
-85.29940033 -719.82519531 37.59619904 2.000000 2.000000
-74.57319641 -706.98498535 45.55440140 2.000000 2.000000
-44.68000031 -749.26788330 46.82109833 2.000000 2.000000
-77.94480133 -740.82971191 42.02130127 2.000000 2.000000
-85.59760284 -763.15960693 21.09180069 2.000000 2.000000
-64.70649719 -755.80572510 41.89350128 2.000000 2.000000
-90.13899994 -709.77941895 27.27549934 2.000000 2.000000
-86.27469635 -715.79302979 35.58670044 2.000000 2.000000
-55.36610031 -764.93518066 37.19499969 2.000000 2.000000
-51.87829971 -751.52441406 45.73310089 2.000000 2.000000
-76.37010193 -737.44140625 44.08789825 2.000000 2.000000
-80.48829651 -762.03918457 24.31100082 2.000000 2.000000
-54.38370132 -738.32122803 31.05260086 1.000000 1.000000
-46.57870102 -740.60711670 -0.48420000 1.000000 1.000000
-85.64330292 -715.71142578 36.06850052 2.000000 2.000000
-57.91579819 -762.94531250 38.25059891 2.000000 2.000000
-79.20619965 -706.40008545 42.24209976 2.000000 2.000000
-64.78269958 -753.03582764 44.27859879 2.000000 2.000000
-78.60970306 -755.95318604 28.76149940 2.000000 2.000000
-62.87110138 -753.81610107 43.29230118 2.000000 2.000000
-82.46420288 -759.65197754 25.40889931 2.000000 2.000000
-81.67250061 -759.37170410 25.77949905 2.000000 2.000000
-75.89289856 -742.29107666 42.20040131 2.000000 2.000000
-57.39709854 -757.40167236 42.05279922 2.000000 2.000000
-57.14580154 -754.93640137 43.56119919 2.000000 2.000000
-50.81940079 -752.80908203 45.17150116 2.000000 2.000000
-81.50669861 -714.62817383 39.02009964 2.000000 2.000000
-60.56520081 -757.63562012 40.82860184 2.000000 2.000000
-60.06840134 -765.60449219 34.62229919 2.000000 2.000000
-55.49390030 -764.85070801 37.25360107 2.000000 2.000000
-80.09089661 -720.92218018 41.27230072 2.000000 2.000000
-66.87629700 -760.27709961 37.68389893 2.000000 2.000000
-67.70040131 -731.28387451 43.69430161 1.000000 1.000000
-79.23419952 -740.04821777 41.78659821 2.000000 2.000000
-56.50019836 -754.05261230 44.13380051 2.000000 2.000000
-46.65520096 -752.60162354 45.55920029 2.000000 2.000000
-87.69460297 -725.08697510 38.27370071 2.000000 2.000000
-53.51729965 -767.96221924 33.71559906 2.000000 2.000000
-87.25000000 -710.87249756 32.16210175 2.000000 2.000000
-46.58940125 -752.37567139 45.61230087 2.000000 2.000000
-29.92770004 -736.53887939 43.71409988 2.000000 2.000000
-76.81150055 -730.37988281 44.23580170 2.000000 2.000000
-86.44090271 -717.24841309 35.75350189 2.000000 2.000000
-91.57630157 -714.45599365 26.86770058 2.000000 2.000000
-59.97990036 -741.45318604 27.20260048 1.000000 1.000000
-57.13800049 -766.81707764 34.53710175 2.000000 2.000000
-54.83000183 -765.64257813 36.27479935 2.000000 2.000000
-76.25559998 -746.79168701 39.49929810 2.000000 2.000000
-60.41740036 -762.28692627 37.67380142 2.000000 2.000000
-90.40699768 -761.65240479 21.96669960 2.000000 2.000000
-76.24960327 -704.25891113 44.04430008 2.000000 2.000000
-47.80649948 -742.02972412 0.26800001 1.000000 1.000000
-91.16419983 -712.37322998 26.83359909 2.000000 2.000000
-81.66470337 -762.46282959 23.33970070 2.000000 2.000000
-53.12469864 -762.22521973 39.28580093 2.000000 2.000000
-45.57160187 -739.63110352 3.73029995 1.000000 1.000000
-81.07170105 -762.95159912 23.48410034 2.000000 2.000000
-83.12709808 -713.91192627 37.44800186 2.000000 2.000000
-27.27059937 -733.86138916 46.12459946 2.000000 2.000000
-67.95420074 -739.10992432 47.16389847 2.000000 2.000000
-76.57550049 -713.87921143 44.28680038 2.000000 2.000000
-76.44819641 -704.31469727 43.99919891 2.000000 2.000000
-83.17839813 -728.58666992 39.84019852 2.000000 2.000000
-36.29520035 -738.35430908 42.90969849 2.000000 2.000000
-75.32749939 -712.45452881 45.17929840 2.000000 2.000000
-54.02959824 -763.21942139 38.43059921 2.000000 2.000000
-47.29750061 -753.08270264 45.28969955 2.000000 2.000000
-83.59770203 -709.81457520 35.13830185 2.000000 2.000000
-85.41059875 -712.75671387 35.07130051 2.000000 2.000000
-87.81340027 -711.08081055 31.76709938 2.000000 2.000000
-46.43019867 -736.88439941 39.36629868 1.000000 1.000000
-50.52439880 -748.18798828 47.47679901 2.000000 2.000000
-51.16350174 -752.57940674 45.20970154 2.000000 2.000000
-83.58750153 -723.54870605 39.88439941 2.000000 2.000000
-36.57139969 -732.55511475 44.77949905 2.000000 2.000000
-87.28009796 -759.08648682 24.79249954 2.000000 2.000000
-74.00099945 -710.61212158 45.81200027 2.000000 2.000000
-75.61859894 -722.77850342 44.09569931 2.000000 2.000000
-85.77960205 -714.58508301 35.54880142 2.000000 2.000000
-38.22119904 -738.31079102 42.56779861 2.000000 2.000000
-65.66230011 -726.97900391 50.51530075 2.000000 2.000000
-40.86169815 -736.15197754 42.49340057 2.000000 2.000000
-66.09190369 -753.22137451 44.09700012 2.000000 2.000000
-72.56199646 -734.39801025 45.51779938 2.000000 2.000000
-56.49150085 -769.10070801 31.88509941 2.000000 2.000000
-57.08179855 -753.99420166 43.97430038 2.000000 2.000000
-55.87540054 -751.54840088 45.26549911 2.000000 2.000000
-71.50640106 -713.33007813 46.42580032 2.000000 2.000000
-29.79430008 -734.11547852 45.58620071 2.000000 2.000000
-65.51689911 -753.11810303 44.18759918 2.000000 2.000000
-78.63749695 -755.87042236 28.96610069 2.000000 2.000000
-95.78089905 -728.35528564 32.31069946 2.000000 2.000000
-95.43180084 -726.82751465 32.89329910 2.000000 2.000000
-86.97200012 -713.33752441 33.84609985 2.000000 2.000000
-78.05280304 -746.37030029 38.71569824 2.000000 2.000000
-87.70459747 -715.57843018 33.64149857 2.000000 2.000000
-77.96769714 -758.81408691 27.52029991 2.000000 2.000000
-75.60410309 -728.98992920 44.52439880 2.000000 2.000000
-83.37809753 -730.23187256 38.72180176 2.000000 2.000000
-87.50569916 -710.08801270 31.23749924 2.000000 2.000000
-28.45240021 -734.57788086 45.55440140 2.000000 2.000000
-90.33480072 -710.38201904 27.50309944 2.000000 2.000000
-18.67270088 -727.72747803 48.89199829 2.000000 2.000000
-61.53870010 -760.71368408 38.19150162 2.000000 2.000000
-85.59660339 -758.03363037 25.87730026 2.000000 2.000000
-59.27510071 -740.33312988 45.74810028 1.000000 1.000000
-87.71450043 -713.34057617 33.31330109 2.000000 2.000000
-74.72810364 -719.37268066 45.34420013 2.000000 2.000000
-47.83919907 -740.98028564 3.27649999 1.000000 1.000000
-87.25409698 -715.52258301 34.35359955 2.000000 2.000000
-44.46329880 -736.28588867 40.84420013 2.000000 2.000000
-68.97869873 -739.13488770 47.06420135 2.000000 2.000000
-87.75170135 -710.76702881 31.60589981 2.000000 2.000000
-75.51260376 -703.22900391 44.72750092 2.000000 2.000000
-75.45189667 -740.20489502 43.26639938 2.000000 2.000000
-49.93360138 -753.83367920 44.68510056 2.000000 2.000000
