-54.08649826 -775.62548828 48.31669998 2.000000 2.000000
-60.28319931 -773.56872559 49.94390106 2.000000 2.000000
-94.39250183 -760.23767090 46.10839844 2.000000 2.000000
-33.21149826 -742.71618652 50.16130066 2.000000 2.000000
-50.69039917 -775.65588379 46.67890167 2.000000 2.000000
-54.40069962 -770.37152100 57.38930130 2.000000 2.000000
-33.08990097 -747.72381592 46.54660034 2.000000 2.000000
-67.60150146 -724.36389160 70.38980103 2.000000 2.000000
-45.81000137 -777.20758057 40.95040131 2.000000 2.000000
-69.46389771 -776.12402344 47.44329834 2.000000 2.000000
-57.99440002 -759.59692383 63.79909897 2.000000 2.000000
-29.58709908 -748.22131348 46.79750061 2.000000 2.000000
-78.37220001 -769.32781982 60.19760132 2.000000 2.000000
-44.63610077 -775.40008545 42.83399963 2.000000 2.000000
-71.26480103 -736.66967773 68.79380035 2.000000 2.000000
-80.84790039 -747.39251709 61.36209869 2.000000 2.000000
-65.28869629 -779.15380859 43.90829849 2.000000 2.000000
-119.88120270 -738.09478760 50.67679977 2.000000 2.000000
-67.52809906 -727.81958008 69.60559845 2.000000 2.000000
-80.71199799 -764.93048096 34.21730042 2.000000 2.000000
-110.53099823 -733.65728760 55.48630142 2.000000 2.000000
-91.79090118 -761.83007813 45.45349884 2.000000 2.000000
-90.85140228 -738.95697021 62.32289886 2.000000 2.000000
-72.45619965 -784.95489502 30.91889954 2.000000 2.000000
-55.05540085 -773.77947998 50.40359879 2.000000 2.000000
-95.75610352 -760.39019775 45.99229813 2.000000 2.000000
-66.49160004 -782.37011719 38.75730133 2.000000 2.000000
-53.85449982 -775.08099365 48.73569870 2.000000 2.000000
-43.67200089 -780.69122314 34.83359909 2.000000 2.000000
-88.68350220 -745.24127197 61.76520157 2.000000 2.000000
-108.37390137 -732.54901123 56.03210068 2.000000 2.000000
-63.37350082 -766.63281250 57.67169952 2.000000 2.000000
-67.62210083 -763.89447021 62.90430069 2.000000 2.000000
-72.78720093 -740.82952881 67.06590271 2.000000 2.000000
-64.49549866 -778.62359619 45.23369980 2.000000 2.000000
-58.82260132 -787.12170410 20.46619987 2.000000 2.000000
-117.64849854 -717.26977539 49.19620132 2.000000 2.000000
-100.64700317 -727.93969727 62.08629990 2.000000 2.000000
-101.99040222 -727.42541504 61.55839920 2.000000 2.000000
-53.68750000 -770.67767334 56.29470062 2.000000 2.000000
-15.22529984 -747.48052979 54.14780045 2.000000 2.000000
-88.39739990 -752.56549072 55.63460159 2.000000 2.000000
-12.22019958 -747.45697021 55.48479843 2.000000 2.000000
-77.15350342 -761.40881348 35.35720062 2.000000 2.000000
-62.22890091 -772.75341797 51.95819855 2.000000 2.000000
-54.49390030 -761.03192139 62.37960052 2.000000 2.000000
-104.61789703 -735.38317871 58.51729965 2.000000 2.000000
-84.36910248 -764.52160645 34.45849991 2.000000 2.000000
-94.95719910 -730.87182617 63.57929993 2.000000 2.000000
-40.46599960 -744.43627930 44.03720093 2.000000 2.000000
-112.45700073 -722.75689697 55.42070007 2.000000 2.000000
-87.88619995 -756.04138184 52.83029938 2.000000 2.000000
-61.61940002 -781.89117432 37.84090042 2.000000 2.000000
-49.86289978 -743.45837402 35.52650070 1.000000 1.000000
-57.65169907 -777.82952881 45.45940018 2.000000 2.000000
-74.67829895 -764.05657959 34.62929916 2.000000 2.000000
-81.28089905 -762.14331055 35.25669861 2.000000 2.000000
-67.97740173 -778.06488037 44.99560165 2.000000 2.000000
-114.37599945 -718.27838135 52.79219818 2.000000 2.000000
-51.50749969 -776.72088623 45.67219925 2.000000 2.000000
-94.86209869 -725.36932373 65.00189972 2.000000 2.000000
-84.80329895 -742.95208740 63.48580170 2.000000 2.000000
-93.18609619 -738.17358398 61.74750137 2.000000 2.000000
-86.11810303 -744.11938477 62.78179932 2.000000 2.000000
-46.01549911 -776.54180908 42.23789978 2.000000 2.000000
-94.30770111 -761.17187500 45.29570007 2.000000 2.000000
-105.48290253 -729.05352783 59.17100143 2.000000 2.000000
-68.81410217 -785.61492920 31.87989998 2.000000 2.000000
-112.70719910 -739.06109619 53.45159912 2.000000 2.000000
-54.34280014 -779.18542480 45.32130051 2.000000 2.000000
-69.53079987 -754.62652588 34.55110168 1.000000 1.000000
-66.88770294 -775.75762939 48.30879974 2.000000 2.000000
-46.48839951 -774.35327148 45.80950165 2.000000 2.000000
-100.54119873 -718.49951172 63.09249878 2.000000 2.000000
-120.44899750 -715.94897461 46.03850174 2.000000 2.000000
-18.47809982 -744.68548584 54.37659836 2.000000 2.000000
-114.06469727 -717.50689697 53.23339844 2.000000 2.000000
-94.84120178 -759.39477539 46.63529968 2.000000 2.000000
-88.43640137 -737.16851807 62.32830048 1.000000 1.000000
-61.14130020 -771.24890137 53.52059937 2.000000 2.000000
-100.99210358 -742.16680908 57.12870026 2.000000 2.000000
-105.61139679 -722.96069336 59.94609833 2.000000 2.000000
-97.56459808 -742.33190918 58.33589935 2.000000 2.000000
-43.93130112 -744.82482910 41.25559998 1.000000 1.000000
-80.13179779 -735.71057129 67.59680176 2.000000 2.000000
-45.54399872 -775.57537842 43.31999969 2.000000 2.000000
-86.79060364 -771.89093018 30.05019951 2.000000 2.000000
-77.25319672 -768.65100098 60.74250031 2.000000 2.000000
-104.03520203 -734.19989014 58.96149826 2.000000 2.000000
-30.03730011 -744.86877441 49.64739990 2.000000 2.000000
-37.00659943 -745.80126953 46.03260040 2.000000 2.000000
-67.35299683 -783.47271729 36.35839844 2.000000 2.000000
-104.91970062 -738.64959717 57.30830002 2.000000 2.000000
-99.96540070 -739.49169922 59.30020142 2.000000 2.000000
-54.11819839 -787.00268555 19.55599976 2.000000 2.000000
-24.32010078 -747.57397461 49.78770065 2.000000 2.000000
-105.70570374 -739.49530029 56.48590088 2.000000 2.000000
-97.18589783 -718.50360107 64.52940369 2.000000 2.000000
-54.85179901 -773.80401611 50.31959915 2.000000 2.000000
-105.20230103 -738.87292480 57.05360031 2.000000 2.000000
-70.61000061 -737.01147461 68.75160217 2.000000 2.000000
-43.07460022 -775.48718262 41.64580154 2.000000 2.000000
-55.08060074 -771.35601807 54.38069916 2.000000 2.000000
-97.51920319 -728.37097168 63.37269974 2.000000 2.000000
-71.17669678 -766.34588623 61.67169952 2.000000 2.000000
-115.26550293 -716.16351318 52.01100159 2.000000 2.000000
-48.20790100 -781.02197266 37.53110123 2.000000 2.000000
-82.42620087 -737.83068848 65.67160034 2.000000 2.000000
-83.78369904 -748.18231201 60.12149811 2.000000 2.000000
-94.95919800 -715.70727539 65.27429962 2.000000 2.000000
-76.26660156 -739.23767090 65.58059692 2.000000 2.000000
-115.80840302 -719.23681641 51.75979996 2.000000 2.000000
-19.43860054 -742.55767822 54.83819962 2.000000 2.000000
-88.81900024 -754.98028564 53.06539917 2.000000 2.000000
-93.26010132 -766.28192139 42.64590073 2.000000 2.000000
-43.12979889 -777.02172852 39.23400116 2.000000 2.000000
-21.30430031 -745.33361816 52.77030182 2.000000 2.000000
-53.58449936 -776.74688721 47.47999954 2.000000 2.000000
-94.62069702 -760.96459961 45.42720032 2.000000 2.000000
-112.53170013 -741.98608398 51.94490051 2.000000 2.000000
-93.82119751 -734.19671631 62.45849991 2.000000 2.000000
-85.11280060 -754.29461670 55.78789902 2.000000 2.000000
-66.55549622 -783.85479736 36.04869843 2.000000 2.000000
-38.92639923 -746.69982910 44.36909866 2.000000 2.000000
-97.36229706 -725.39862061 64.00109863 2.000000 2.000000
-23.55489922 -743.23358154 53.47919846 2.000000 2.000000
-11.28600025 -747.01068115 55.65370178 2.000000 2.000000
-104.22640228 -739.26257324 57.93399811 2.000000 2.000000
-57.24810028 -744.13378906 34.08689880 1.000000 1.000000
-99.08589935 -737.25268555 60.43199921 2.000000 2.000000
-105.45670319 -722.42797852 60.15729904 2.000000 2.000000
-92.17690277 -753.54772949 53.43080139 2.000000 2.000000
-105.94309998 -729.90747070 59.08050156 2.000000 2.000000
-104.32260132 -742.40008545 55.53850174 2.000000 2.000000
-95.90329742 -735.01220703 61.68730164 2.000000 2.000000
-54.74819946 -778.73321533 44.04449844 2.000000 2.000000
-59.64239883 -778.57122803 44.04750061 2.000000 2.000000
-70.99909973 -744.47937012 55.08869934 1.000000 1.000000
-64.60510254 -774.56268311 49.87570190 2.000000 2.000000
-60.57580185 -773.42181396 50.62900162 2.000000 2.000000
-53.69430161 -787.23272705 20.65780067 2.000000 2.000000
-67.87590027 -736.03771973 69.40329742 2.000000 2.000000
-55.01979828 -786.61260986 22.01320076 2.000000 2.000000
-55.73210144 -759.52642822 64.00939941 2.000000 2.000000
-67.96279907 -775.12078857 52.29600143 2.000000 2.000000
-77.76319885 -765.62292480 34.05960083 2.000000 2.000000
-81.79340363 -767.41912842 32.90150070 2.000000 2.000000
-62.68059921 -755.15087891 61.33959961 1.000000 1.000000
-62.63999939 -765.61737061 58.38430023 2.000000 2.000000
-43.15570068 -775.90887451 41.09980011 2.000000 2.000000
-54.75519943 -771.04272461 55.50630188 2.000000 2.000000
-42.74860001 -780.08197021 34.85290146 2.000000 2.000000
-95.17320251 -714.98400879 65.25330353 2.000000 2.000000
-94.41230011 -761.98107910 44.79119873 2.000000 2.000000
-89.32319641 -745.38781738 61.60350037 2.000000 2.000000
-27.18120003 -744.05651855 51.22439957 2.000000 2.000000
-82.88719940 -758.35717773 53.58119965 2.000000 2.000000
-83.90910339 -747.83959961 60.08580017 2.000000 2.000000
-65.32779694 -782.48638916 39.17810059 2.000000 2.000000
-58.87799835 -745.83758545 42.55799866 1.000000 1.000000
-75.47139740 -732.58001709 69.21959686 2.000000 2.000000
-94.41860199 -721.45367432 65.44640350 2.000000 2.000000
-107.90859985 -739.10821533 55.66329956 2.000000 2.000000
-48.31600189 -778.99047852 40.11600113 2.000000 2.000000
-88.04309845 -745.14221191 61.92850113 2.000000 2.000000
-95.53269958 -712.11761475 65.90419769 2.000000 2.000000
-93.13760376 -753.69757080 53.00709915 2.000000 2.000000
-71.19159698 -767.34277344 60.59360123 2.000000 2.000000
-103.72059631 -731.37152100 60.00410080 2.000000 2.000000
-76.33149719 -733.89208984 68.78500366 2.000000 2.000000
-61.23619843 -781.38519287 38.69260025 2.000000 2.000000
-105.53060150 -740.49542236 56.24980164 2.000000 2.000000
-82.61139679 -753.10131836 58.16370010 2.000000 2.000000
-70.60379791 -784.47552490 32.51589966 2.000000 2.000000
-52.31729889 -760.19049072 64.86319733 2.000000 2.000000
-69.49700165 -733.70440674 69.06469727 2.000000 2.000000
-80.48390198 -733.22290039 68.86090088 2.000000 2.000000
-69.60399628 -783.54949951 34.57260132 2.000000 2.000000
-74.79440308 -725.95117188 70.56199646 2.000000 2.000000
-44.60829926 -776.94830322 40.34619904 2.000000 2.000000
-90.25409698 -725.69317627 65.73329926 2.000000 2.000000
-30.26390076 -747.79949951 47.15069962 2.000000 2.000000
-93.47640228 -737.84558105 61.75870132 2.000000 2.000000
-109.45880127 -718.99487305 57.58250046 2.000000 2.000000
-67.52519989 -728.88519287 69.47270203 2.000000 2.000000
-105.56369781 -742.67028809 54.82659912 2.000000 2.000000
-87.37280273 -744.18579102 62.77849960 2.000000 2.000000
-54.71879959 -785.17291260 31.30039978 2.000000 2.000000
-90.07820129 -763.92181396 44.62850189 2.000000 2.000000
-74.46579742 -761.84631348 35.33010101 2.000000 2.000000
-60.38639832 -785.10772705 31.22159958 2.000000 2.000000
-95.65959930 -721.03131104 65.00949860 2.000000 2.000000
-95.45629883 -715.24847412 65.06069946 2.000000 2.000000
-91.31870270 -737.59118652 62.26649857 2.000000 2.000000
-55.59059906 -783.37567139 35.39239883 2.000000 2.000000
-53.15679932 -773.01538086 51.55329895 2.000000 2.000000
-98.17479706 -721.35748291 63.99520111 2.000000 2.000000
-58.71120071 -745.30401611 40.47880173 1.000000 1.000000
-79.64409637 -741.71020508 60.98659897 1.000000 1.000000
-98.46920013 -714.93988037 63.86619949 2.000000 2.000000
-87.70349884 -737.93792725 62.10630035 1.000000 1.000000
-77.39530182 -728.12207031 70.60890198 2.000000 2.000000
-51.71860123 -773.22338867 50.51589966 2.000000 2.000000
-32.82699966 -743.28308105 50.11040115 2.000000 2.000000
-40.33890152 -779.89880371 33.87080002 2.000000 2.000000
-118.93019867 -719.75671387 48.42760086 2.000000 2.000000
-108.61479950 -724.55029297 58.01229858 2.000000 2.000000
-104.19819641 -742.68231201 55.43550110 2.000000 2.000000
-86.62210083 -748.32977295 59.73899841 2.000000 2.000000
-57.16370010 -777.64398193 45.93149948 2.000000 2.000000
-68.79470062 -725.52380371 70.31990051 2.000000 2.000000
-109.70880127 -735.01068115 55.34429932 2.000000 2.000000
-81.64510345 -744.47662354 61.23849869 2.000000 2.000000
-112.27020264 -725.89862061 55.07009888 2.000000 2.000000
-59.68939972 -769.40167236 53.19440079 2.000000 2.000000
-74.93039703 -731.34338379 69.59089661 2.000000 2.000000
-57.60400009 -769.64019775 56.58390045 2.000000 2.000000
-28.87150002 -746.40118408 48.91310120 2.000000 2.000000
-100.93879700 -738.46960449 59.36220169 2.000000 2.000000
-115.47850037 -720.83941650 52.07279968 2.000000 2.000000
-64.48950195 -778.51257324 44.77719879 2.000000 2.000000
-113.65399933 -727.72631836 53.15719986 2.000000 2.000000
-112.72579956 -723.30938721 54.86069870 2.000000 2.000000
-59.05810165 -787.10778809 20.72809982 2.000000 2.000000
-109.60399628 -717.96130371 57.44950104 2.000000 2.000000
-95.84089661 -773.75891113 29.14830017 2.000000 2.000000
-14.26159954 -745.75097656 55.33919907 2.000000 2.000000
-54.03509903 -780.73272705 40.76589966 2.000000 2.000000
-112.47760010 -729.18988037 53.98649979 2.000000 2.000000
-109.66560364 -728.57647705 56.76670074 2.000000 2.000000
-59.26969910 -747.48272705 42.84009933 1.000000 1.000000
-72.67169952 -733.96429443 68.91269684 2.000000 2.000000
-67.14309692 -763.31347656 64.92859650 2.000000 2.000000
-65.93049622 -778.91052246 44.13430023 2.000000 2.000000
-118.42710114 -738.44818115 50.71329880 2.000000 2.000000
-79.74559784 -731.42089844 70.11530304 2.000000 2.000000
-51.25920105 -759.91192627 65.66110229 2.000000 2.000000
-63.27320099 -779.39062500 44.07899857 2.000000 2.000000
-60.31150055 -773.25067139 50.30450058 2.000000 2.000000
-71.72029877 -735.63720703 68.85630035 2.000000 2.000000
-96.60929871 -712.46942139 65.06620026 2.000000 2.000000
-67.71279907 -774.61822510 49.71780014 2.000000 2.000000
-112.88159943 -733.68878174 54.66270065 2.000000 2.000000
-74.60600281 -777.37121582 44.35680008 2.000000 2.000000
-120.19259644 -712.38928223 45.84389877 2.000000 2.000000
-88.81919861 -755.29858398 52.88610077 2.000000 2.000000
-91.50330353 -763.22180176 44.52190018 2.000000 2.000000
-54.45999908 -770.86621094 55.70619965 2.000000 2.000000
-95.78240204 -772.16137695 30.69479942 2.000000 2.000000
-63.45740128 -762.07678223 58.73049927 2.000000 2.000000
-71.46309662 -736.42968750 68.91860199 2.000000 2.000000
-44.05759811 -745.22039795 40.53279877 1.000000 1.000000
-84.55300140 -753.26391602 57.12260056 2.000000 2.000000
-40.54800034 -777.24542236 37.33259964 2.000000 2.000000
-78.12039948 -741.53619385 60.64289856 1.000000 1.000000
-109.74389648 -720.57141113 57.04660034 2.000000 2.000000
-53.56010056 -742.74298096 25.04330063 1.000000 1.000000
-109.01599884 -733.35388184 56.13899994 2.000000 2.000000
-19.57130051 -747.55932617 52.09000015 2.000000 2.000000
-67.40619659 -780.76501465 40.84999847 2.000000 2.000000
-71.49510193 -765.88891602 62.18690109 2.000000 2.000000
-61.64429855 -764.73272705 58.57099915 2.000000 2.000000
-86.84010315 -762.17700195 47.42229843 2.000000 2.000000
-94.86650085 -727.76147461 64.51439667 2.000000 2.000000
-90.59110260 -736.08319092 62.57529831 2.000000 2.000000
-75.65509796 -764.86517334 34.33689880 2.000000 2.000000
-88.53579712 -764.15472412 34.70579910 2.000000 2.000000
-92.82779694 -748.66412354 57.81110001 2.000000 2.000000
-83.95570374 -748.04199219 60.02989960 2.000000 2.000000
-66.50900269 -735.59338379 69.66750336 2.000000 2.000000
-79.12339783 -739.82672119 64.35929871 2.000000 2.000000
-18.65040016 -748.28277588 51.85070038 2.000000 2.000000
-113.76999664 -718.54931641 53.51269913 2.000000 2.000000
-56.78910065 -777.02691650 46.54079819 2.000000 2.000000
-50.56240082 -773.24682617 50.48490143 2.000000 2.000000
-102.55770111 -733.86181641 59.83440018 2.000000 2.000000
-90.83339691 -756.57281494 50.74599838 2.000000 2.000000
-79.75009918 -760.78607178 35.62450027 2.000000 2.000000
-95.60970306 -772.26232910 30.57729912 2.000000 2.000000
-60.38619995 -776.26068115 47.50590134 2.000000 2.000000
-70.17669678 -740.89752197 68.06169891 2.000000 2.000000
-79.18560028 -765.64459229 33.89559937 2.000000 2.000000
-99.18170166 -739.04901123 59.75669861 2.000000 2.000000
-53.92710114 -783.28869629 35.80239868 2.000000 2.000000
-70.62550354 -779.23760986 41.94670105 2.000000 2.000000
-118.67330170 -716.52008057 48.02890015 2.000000 2.000000
-70.19940186 -755.07031250 34.35210037 1.000000 1.000000
-69.04209900 -782.87042236 36.10150146 2.000000 2.000000
-87.66369629 -749.59069824 58.60070038 2.000000 2.000000
-74.13819885 -766.18609619 62.88850021 2.000000 2.000000
-88.91829681 -761.73388672 46.75419998 2.000000 2.000000
-121.53009796 -715.64581299 44.50579834 2.000000 2.000000
-98.26370239 -732.07000732 61.95899963 2.000000 2.000000
-50.24649811 -762.21282959 64.03250122 2.000000 2.000000
-87.06909943 -762.95568848 35.19279861 2.000000 2.000000
-62.96009827 -786.44152832 24.80220032 2.000000 2.000000
-49.88980103 -773.59527588 49.35039902 2.000000 2.000000
-113.73940277 -738.90972900 53.10490036 2.000000 2.000000
-48.90549850 -774.29522705 47.94589996 2.000000 2.000000
-60.91279984 -780.64428711 40.28260040 2.000000 2.000000
-97.61720276 -719.26208496 64.29080200 2.000000 2.000000
-16.81769943 -747.27447510 53.61550140 2.000000 2.000000
-86.94860077 -750.49291992 57.84960175 2.000000 2.000000
-26.78179932 -742.80682373 52.20380020 2.000000 2.000000
-60.50790024 -775.87329102 47.92079926 2.000000 2.000000
-83.06109619 -751.46539307 59.07540131 2.000000 2.000000
-90.36440277 -770.67950439 30.62500000 2.000000 2.000000
-47.47050095 -743.56860352 37.50510025 1.000000 1.000000
-97.26889801 -732.44390869 62.16189957 2.000000 2.000000
-72.33000183 -729.88647461 69.90350342 2.000000 2.000000
-79.96109772 -754.00677490 58.58679962 2.000000 2.000000
-90.23519897 -755.79199219 51.70520020 2.000000 2.000000
-110.52690125 -736.45812988 55.08459854 2.000000 2.000000
-94.86910248 -739.21362305 61.04930115 2.000000 2.000000
-85.57820129 -752.71917725 56.84140015 2.000000 2.000000
-73.23519897 -739.31872559 67.42610168 2.000000 2.000000
-83.34179688 -740.09942627 61.70280075 1.000000 1.000000
-70.42690277 -744.56152344 55.89070129 1.000000 1.000000
-47.49209976 -777.59881592 41.66550064 2.000000 2.000000
-69.88529968 -767.17462158 60.31090164 2.000000 2.000000
-28.48760033 -742.75018311 51.46640015 2.000000 2.000000
-98.03959656 -727.61791992 63.21559906 2.000000 2.000000
-100.14880371 -719.36682129 63.14339828 2.000000 2.000000
-65.65139771 -769.31658936 56.97869873 2.000000 2.000000
-50.43140030 -771.59960938 55.16899872 2.000000 2.000000
-55.36180115 -760.02062988 61.85760117 2.000000 2.000000
-12.21170044 -744.55017090 56.95100021 2.000000 2.000000
-83.87650299 -752.26531982 58.16460037 2.000000 2.000000
-92.33029938 -738.59197998 61.95149994 2.000000 2.000000
-23.44639969 -747.07031250 50.61790085 2.000000 2.000000
-71.30239868 -728.10778809 70.10289764 2.000000 2.000000
-104.28459930 -743.07928467 55.27059937 2.000000 2.000000
-46.56470108 -738.96942139 2.11599994 1.000000 1.000000
-15.72319984 -747.85632324 53.78340149 2.000000 2.000000
-115.22669983 -716.70489502 51.87269974 2.000000 2.000000
-119.19390106 -736.47113037 51.56949997 2.000000 2.000000
-59.33810043 -757.76641846 60.14559937 1.000000 1.000000
-58.37670135 -774.83239746 48.97460175 2.000000 2.000000
-54.61119843 -743.56390381 23.65320015 1.000000 1.000000
-78.80999756 -734.21838379 68.48139954 2.000000 2.000000
-53.67520142 -772.71331787 52.16099930 2.000000 2.000000
-49.63560104 -774.58819580 47.70640182 2.000000 2.000000
-54.16889954 -784.94360352 31.74570084 2.000000 2.000000
-93.66439819 -725.60028076 65.18789673 2.000000 2.000000
-51.63589859 -774.81671143 47.86619949 2.000000 2.000000
-27.82609940 -745.42370605 50.05440140 2.000000 2.000000
-44.71340179 -775.29748535 43.06489944 2.000000 2.000000
-59.94060135 -776.10040283 47.47460175 2.000000 2.000000
-118.93650055 -736.26977539 51.68249893 2.000000 2.000000
-54.47150040 -742.29949951 26.22859955 1.000000 1.000000
-30.91769981 -746.48931885 48.17839813 2.000000 2.000000
-84.30729675 -743.11102295 63.24380112 2.000000 2.000000
-113.87049866 -729.32812500 52.58679962 2.000000 2.000000
-110.80500031 -737.54656982 54.94359970 2.000000 2.000000
-67.19100189 -728.89538574 69.42939758 2.000000 2.000000
-35.16889954 -743.78930664 48.82130051 2.000000 2.000000
-43.48109818 -744.66461182 41.94269943 1.000000 1.000000
-31.60409927 -745.32501221 47.84529877 2.000000 2.000000
-70.24420166 -765.90240479 61.66479874 2.000000 2.000000
-98.42060089 -717.87872314 63.66189957 2.000000 2.000000
-52.22399902 -780.44451904 40.83110046 2.000000 2.000000
-95.73850250 -721.08666992 65.07050323 2.000000 2.000000
-71.76879883 -744.38098145 55.79750061 1.000000 1.000000
-79.17420197 -764.88128662 34.13000107 2.000000 2.000000
-55.24980164 -782.84649658 36.76419830 2.000000 2.000000
-69.35540009 -726.44812012 70.17289734 2.000000 2.000000
-39.98619843 -746.55957031 43.83599854 2.000000 2.000000
-55.35459900 -778.84912109 43.84749985 2.000000 2.000000
-110.82360077 -726.41400146 56.46689987 2.000000 2.000000
-79.51589966 -761.50402832 35.41559982 2.000000 2.000000
-20.96150017 -743.24707031 54.11220169 2.000000 2.000000
-60.38880157 -772.78839111 50.88349915 2.000000 2.000000
-91.33969879 -761.38311768 46.10229874 2.000000 2.000000
-83.54440308 -761.52502441 35.74449921 2.000000 2.000000
-90.84020233 -771.13128662 30.00180054 2.000000 2.000000
-95.42790222 -771.34777832 31.00320053 2.000000 2.000000
-87.63800049 -752.59490967 55.70330048 2.000000 2.000000
-60.30260086 -786.95562744 21.36870003 2.000000 2.000000
-30.28380013 -746.55780029 48.34420013 2.000000 2.000000
-70.69550323 -776.17529297 47.44300079 2.000000 2.000000
-56.08319855 -776.08721924 48.84170151 2.000000 2.000000
-70.08679962 -785.39379883 31.76950073 2.000000 2.000000
-61.34980011 -779.38122559 43.17929840 2.000000 2.000000
-98.16149902 -726.98406982 63.30690002 2.000000 2.000000
-97.89350128 -727.75231934 63.27970123 2.000000 2.000000
-76.89990234 -728.55218506 70.41539764 2.000000 2.000000
-89.26349640 -753.27697754 54.78070068 2.000000 2.000000
-55.86090088 -786.71307373 23.94090080 2.000000 2.000000
-93.77490234 -721.32531738 65.61959839 2.000000 2.000000
-51.68460083 -778.43151855 43.75439835 2.000000 2.000000
-80.97149658 -745.65032959 61.64199829 2.000000 2.000000
-85.10790253 -738.98498535 61.92119980 1.000000 1.000000
-91.85389709 -746.18310547 60.64630127 2.000000 2.000000
-46.93750000 -740.87432861 7.52309990 1.000000 1.000000
-67.35410309 -730.34637451 69.30840302 2.000000 2.000000
-116.70390320 -734.89117432 52.86610031 2.000000 2.000000
-112.69850159 -726.88848877 54.35029984 2.000000 2.000000
-109.63030243 -720.89428711 57.17760086 2.000000 2.000000
-58.62149811 -776.89532471 46.56119919 2.000000 2.000000
-113.62719727 -741.98071289 51.49879837 2.000000 2.000000
-80.30970001 -735.91937256 67.56909943 2.000000 2.000000
-87.23069763 -763.87841797 34.79259872 2.000000 2.000000
-50.25749969 -775.69842529 46.29090118 2.000000 2.000000
-60.50529861 -762.69958496 57.94440079 1.000000 1.000000
-96.46970367 -712.48681641 65.25070190 2.000000 2.000000
-46.22930145 -773.33947754 47.47259903 2.000000 2.000000
-106.65969849 -732.65277100 57.68119812 2.000000 2.000000
-66.55200195 -774.73822021 52.51190186 2.000000 2.000000
-59.00529861 -746.92108154 39.33750153 1.000000 1.000000
-54.54970169 -773.04479980 51.42990112 2.000000 2.000000
-56.10139847 -775.89642334 49.42150116 2.000000 2.000000
-57.42060089 -745.57342529 28.43079948 1.000000 1.000000
-98.50859833 -727.30737305 63.10919952 2.000000 2.000000
-99.91100311 -710.82360840 64.72859955 2.000000 2.000000
-75.42220306 -769.24621582 59.97529984 2.000000 2.000000
-75.23950195 -736.09411621 67.54049683 2.000000 2.000000
-52.43069839 -741.86968994 21.42049980 1.000000 1.000000
-87.73639679 -757.39892578 51.59189987 2.000000 2.000000
-64.51760101 -766.87652588 58.02590179 2.000000 2.000000
-51.56760025 -771.46319580 56.09759903 2.000000 2.000000
-80.28990173 -735.71691895 67.65509796 2.000000 2.000000
-43.46289825 -776.43280029 40.40800095 2.000000 2.000000
-83.88099670 -760.22521973 51.76620102 2.000000 2.000000
-115.88700104 -741.79827881 50.60530090 2.000000 2.000000
-106.87169647 -725.10858154 59.01279831 2.000000 2.000000
-76.23220062 -741.80572510 64.11900330 2.000000 2.000000
-115.08910370 -721.28540039 52.54759979 2.000000 2.000000
-64.23090363 -780.37207031 42.81470108 2.000000 2.000000
-54.09609985 -779.49151611 42.40489960 2.000000 2.000000
-48.85070038 -776.84161377 43.57979965 2.000000 2.000000
-88.35600281 -752.46032715 55.68709946 2.000000 2.000000
-55.61780167 -778.23828125 46.51720047 2.000000 2.000000
-52.50709915 -786.28332520 25.37520027 2.000000 2.000000
-61.06119919 -770.65698242 54.13740158 2.000000 2.000000
-65.56099701 -720.19396973 69.67749786 2.000000 2.000000
-100.53469849 -742.70837402 56.87599945 2.000000 2.000000
-87.04039764 -764.39941406 34.52999878 2.000000 2.000000
-60.70959854 -776.26367188 47.71920013 2.000000 2.000000
-77.03009796 -727.64770508 70.76349640 2.000000 2.000000
-96.59220123 -715.87652588 64.70290375 2.000000 2.000000
-71.98100281 -764.25207520 64.17379761 2.000000 2.000000
-95.52130127 -757.43121338 48.67530060 2.000000 2.000000
-96.20159912 -723.60137939 64.84929657 2.000000 2.000000
-100.17489624 -725.37268066 62.91490173 2.000000 2.000000
-66.09529877 -745.32489014 52.94319916 1.000000 1.000000
-89.76309967 -759.95288086 48.01459885 2.000000 2.000000
-111.64640045 -717.26751709 55.73419952 2.000000 2.000000
-27.09189987 -745.31567383 50.47069931 2.000000 2.000000
-57.43330002 -776.38238525 47.44029999 2.000000 2.000000
-93.00569916 -729.91979980 64.48100281 2.000000 2.000000
-69.59649658 -783.51257324 34.65650177 2.000000 2.000000
-100.82589722 -712.91589355 63.98410034 2.000000 2.000000
-85.05809784 -745.06701660 62.00550079 2.000000 2.000000
-106.80789948 -720.31011963 59.52479935 2.000000 2.000000
-96.40789795 -738.37817383 60.99480057 2.000000 2.000000
-59.34609985 -747.68707275 44.28430176 1.000000 1.000000
-73.47460175 -733.74481201 68.84470367 2.000000 2.000000
-21.04430008 -747.37200928 51.43339920 2.000000 2.000000
-113.17050171 -737.76507568 53.69079971 2.000000 2.000000
-26.76589966 -747.03131104 49.00490189 2.000000 2.000000
-67.67790222 -730.26391602 69.22489929 2.000000 2.000000
-98.67199707 -712.61877441 64.22560120 2.000000 2.000000
-99.54409790 -723.65362549 63.31129837 2.000000 2.000000
-45.89550018 -772.41149902 49.70090103 2.000000 2.000000
-52.17860031 -777.24237061 45.90549850 2.000000 2.000000
-118.96050262 -716.63079834 47.78770065 2.000000 2.000000
-120.01740265 -739.75689697 50.07479858 2.000000 2.000000
-62.04890060 -782.40441895 36.57889938 2.000000 2.000000
-118.89450073 -717.08221436 47.85139847 2.000000 2.000000
-56.15230179 -772.31207275 52.34249878 2.000000 2.000000
-60.48170090 -786.22967529 24.51589966 2.000000 2.000000
-75.22139740 -743.37182617 58.25009918 1.000000 1.000000
-98.45059967 -724.74237061 63.62110138 2.000000 2.000000
-50.10609818 -772.88928223 50.52119827 2.000000 2.000000
-99.92009735 -711.47790527 64.42870331 2.000000 2.000000
-18.38220024 -748.16119385 52.15140152 2.000000 2.000000
-89.75450134 -760.49072266 47.58739853 2.000000 2.000000
-59.57239914 -758.88897705 58.16529846 2.000000 2.000000
-69.11940002 -726.69592285 70.30850220 2.000000 2.000000
-85.82849884 -750.94702148 57.92399979 2.000000 2.000000
-97.04409790 -716.80541992 64.50879669 2.000000 2.000000
-63.11360168 -776.25170898 48.18629837 2.000000 2.000000
-77.56289673 -764.01910400 34.68389893 2.000000 2.000000
-57.21500015 -776.74322510 46.82649994 2.000000 2.000000
-58.75040054 -769.93859863 55.21009827 2.000000 2.000000
-74.38909912 -736.72430420 67.96589661 2.000000 2.000000
-49.73680115 -776.90979004 44.09099960 2.000000 2.000000
-66.72660065 -784.81048584 34.45619965 2.000000 2.000000
-115.41819763 -721.50201416 52.11199951 2.000000 2.000000
-115.61810303 -726.18927002 51.28480148 2.000000 2.000000
-59.98260117 -748.05792236 40.15409851 1.000000 1.000000
-116.95059967 -722.52392578 50.31850052 2.000000 2.000000
-123.28170013 -715.64367676 43.33039856 2.000000 2.000000
-67.38269806 -782.17297363 38.59949875 2.000000 2.000000
-66.39569855 -735.41009521 69.71279907 2.000000 2.000000
-62.08869934 -785.50738525 28.23760033 2.000000 2.000000
-33.14559937 -744.22467041 48.94749832 2.000000 2.000000
-98.66480255 -732.71191406 61.47380066 2.000000 2.000000
-36.34790039 -745.25372314 46.70719910 2.000000 2.000000
-106.09690094 -721.96051025 59.73860168 2.000000 2.000000
-62.41859818 -785.05438232 29.76869965 2.000000 2.000000
-82.40979767 -752.04187012 58.85810089 2.000000 2.000000
-88.94599915 -747.21002197 60.19279861 2.000000 2.000000
-110.18029785 -739.02508545 54.76160049 2.000000 2.000000
-78.46330261 -738.37817383 65.84809875 2.000000 2.000000
-63.90259933 -775.02941895 49.84759903 2.000000 2.000000
-69.24729919 -781.48638916 38.73580170 2.000000 2.000000
-63.00719833 -776.79412842 47.08240128 2.000000 2.000000
-113.65930176 -720.16552734 54.01839828 2.000000 2.000000
-51.81700134 -785.67932129 28.21459961 2.000000 2.000000
-78.77149963 -735.28027344 67.90209961 2.000000 2.000000
-92.04309845 -748.94171143 57.86050034 2.000000 2.000000
-22.01160049 -745.83129883 52.15340042 2.000000 2.000000
-87.83489990 -753.07470703 55.23789978 2.000000 2.000000
-69.24729919 -768.81732178 58.29019928 2.000000 2.000000
-51.43579865 -771.46697998 56.29550171 2.000000 2.000000
-18.29640007 -746.80847168 53.30500031 2.000000 2.000000
-67.65640259 -744.57537842 54.33599854 1.000000 1.000000
-70.80449677 -779.87561035 40.72409821 2.000000 2.000000
-98.98719788 -711.94921875 64.30989838 2.000000 2.000000
-56.53039932 -772.47082520 51.87179947 2.000000 2.000000
-64.88289642 -783.35058594 37.94879913 2.000000 2.000000
-61.13619995 -778.65740967 44.25630188 2.000000 2.000000
-90.86250305 -752.27990723 55.07649994 2.000000 2.000000
-61.48649979 -786.88702393 21.56200027 2.000000 2.000000
-73.74310303 -727.91857910 70.35220337 2.000000 2.000000
-109.64320374 -720.50878906 57.27560043 2.000000 2.000000
-47.71889877 -739.85168457 2.17840004 1.000000 1.000000
-101.39050293 -736.02612305 59.93529892 2.000000 2.000000
-106.12629700 -736.25262451 57.66839981 2.000000 2.000000
-43.57360077 -777.55603027 38.70769882 2.000000 2.000000
-101.69740295 -739.21661377 58.69499969 2.000000 2.000000
-94.66519928 -753.96130371 52.25329971 2.000000 2.000000
-60.16490173 -747.64727783 42.47909927 1.000000 1.000000
-81.32479858 -747.70379639 61.27569962 2.000000 2.000000
-89.54949951 -752.10931396 55.61849976 2.000000 2.000000
-89.85060120 -728.52679443 65.85140228 2.000000 2.000000
-53.71490097 -770.76977539 55.98249817 2.000000 2.000000
-66.46350098 -766.87597656 58.59970093 2.000000 2.000000
-108.83850098 -730.73181152 56.96400070 2.000000 2.000000
-85.55560303 -745.62548828 61.63389969 2.000000 2.000000
-106.09770203 -723.19927979 59.56719971 2.000000 2.000000
-46.65370178 -739.14898682 -1.65799999 1.000000 1.000000
-83.63050079 -752.04656982 58.43980026 2.000000 2.000000
-91.64830017 -746.71667480 60.19400024 2.000000 2.000000
-55.33010101 -777.82958984 46.92850113 2.000000 2.000000
-72.48100281 -735.44317627 68.57219696 2.000000 2.000000
-52.62599945 -777.66827393 45.28440094 2.000000 2.000000
-119.07160187 -720.30810547 48.17940140 2.000000 2.000000
-70.95739746 -743.58581543 56.81930161 1.000000 1.000000
-92.07969666 -734.80908203 62.66049957 2.000000 2.000000
-79.54949951 -752.52441406 59.74459839 2.000000 2.000000
-59.75559998 -787.20452881 20.31189919 2.000000 2.000000
-12.75419998 -745.11791992 56.66979980 2.000000 2.000000
-51.39009857 -740.43371582 13.26550007 1.000000 1.000000
-104.86470032 -733.58337402 58.73770142 2.000000 2.000000
-26.46699905 -745.04028320 50.96870041 2.000000 2.000000
-112.39459991 -720.45037842 55.18310165 2.000000 2.000000
-104.16870117 -733.35357666 59.25189972 2.000000 2.000000
-70.68669891 -776.12731934 47.22859955 2.000000 2.000000
-95.50350189 -750.68542480 55.50490189 2.000000 2.000000
-112.78330231 -739.60729980 53.21200180 2.000000 2.000000
-56.24629974 -786.75848389 21.08930016 2.000000 2.000000
-58.64049911 -787.78491211 17.70619965 2.000000 2.000000
-86.68309784 -753.05407715 56.04209900 2.000000 2.000000
-118.78220367 -735.57757568 52.27859879 2.000000 2.000000
-94.53359985 -771.90789795 30.54400063 2.000000 2.000000
-63.81420135 -774.59100342 50.28810120 2.000000 2.000000
-60.64519882 -774.49371338 49.63050079 2.000000 2.000000
-54.37990189 -778.34997559 46.20240021 2.000000 2.000000
-78.90350342 -736.25811768 67.49420166 2.000000 2.000000
-49.53219986 -740.11578369 7.52869987 1.000000 1.000000
-104.46430206 -736.93579102 58.23839951 2.000000 2.000000
-66.98809814 -768.01867676 58.05070114 2.000000 2.000000
-74.09449768 -733.58367920 68.70680237 2.000000 2.000000
-43.13890076 -777.80847168 38.05369949 2.000000 2.000000
-96.50849915 -716.23632813 64.76950073 2.000000 2.000000
-44.48360062 -775.64538574 42.39179993 2.000000 2.000000
-76.80670166 -763.08001709 35.05929947 2.000000 2.000000
-112.86319733 -715.98132324 54.33509827 2.000000 2.000000
-84.75229645 -749.02032471 59.37350082 2.000000 2.000000
-54.78189850 -777.94348145 46.57490158 2.000000 2.000000
-86.50209808 -748.31127930 59.69150162 2.000000 2.000000
-57.23320007 -777.51617432 46.10969925 2.000000 2.000000
-99.01260376 -715.80541992 63.54980087 2.000000 2.000000
-96.18900299 -716.38427734 64.86019897 2.000000 2.000000
-67.92749786 -721.33312988 70.32540131 2.000000 2.000000
-97.05429840 -726.06158447 64.03869629 2.000000 2.000000
-83.96019745 -765.26837158 34.12590027 2.000000 2.000000
-121.07980347 -714.81451416 44.89509964 2.000000 2.000000
-87.51300049 -751.31231689 56.89289856 2.000000 2.000000
-65.04239655 -779.93231201 42.87260056 2.000000 2.000000
-58.42419815 -778.26477051 44.83300018 2.000000 2.000000
-28.98649979 -742.97448730 51.21149826 2.000000 2.000000
-68.96890259 -733.78918457 69.31279755 2.000000 2.000000
-60.21709824 -773.90747070 49.90209961 2.000000 2.000000
-66.02320099 -765.15582275 59.39070129 2.000000 2.000000
-111.30799866 -721.49249268 56.09310150 2.000000 2.000000
-97.93650055 -740.43078613 59.40240097 2.000000 2.000000
-94.16709900 -731.35858154 63.70529938 2.000000 2.000000
-43.94240189 -777.74279785 38.66960144 2.000000 2.000000
-101.01339722 -728.72369385 61.68859863 2.000000 2.000000
-86.91459656 -745.76397705 61.56060028 2.000000 2.000000
-38.69919968 -746.32281494 44.75090027 2.000000 2.000000
-80.79650116 -745.50238037 61.90560150 2.000000 2.000000
-44.67340088 -772.29418945 50.04299927 2.000000 2.000000
-56.45289993 -773.07568359 51.35430145 2.000000 2.000000
-109.78140259 -724.49530029 57.39929962 2.000000 2.000000
-120.61119843 -715.86651611 45.68840027 2.000000 2.000000
-40.07429886 -744.84228516 44.80270004 2.000000 2.000000
-33.92200089 -744.43457031 48.49779892 2.000000 2.000000
-74.98410034 -731.10888672 69.67400360 2.000000 2.000000
-106.82479858 -737.44342041 57.09569931 2.000000 2.000000
-52.49649811 -777.38061523 45.52650070 2.000000 2.000000
-63.20920181 -765.95422363 58.06639862 2.000000 2.000000
-86.65619659 -752.83349609 56.32849884 2.000000 2.000000
-52.55609894 -761.16912842 63.60029984 2.000000 2.000000
-27.98620033 -743.78442383 51.09339905 2.000000 2.000000
-52.18510056 -776.67602539 46.00849915 2.000000 2.000000
-97.28369904 -733.60552979 61.52730179 2.000000 2.000000
-67.61380005 -779.82910156 42.38109970 2.000000 2.000000
-46.21450043 -772.43927002 49.41220093 2.000000 2.000000
-23.55400085 -746.51501465 51.07089996 2.000000 2.000000
-54.84619904 -787.16082764 20.58230019 2.000000 2.000000
-104.99389648 -725.72637939 59.94229889 2.000000 2.000000
-80.68499756 -754.26428223 58.01449966 2.000000 2.000000
-89.62110138 -749.46978760 58.23020172 2.000000 2.000000
-90.88410187 -753.64447021 53.83760071 2.000000 2.000000
-48.78810120 -774.38507080 47.72829819 2.000000 2.000000
-115.03209686 -729.14508057 51.57089996 2.000000 2.000000
-29.51180077 -743.48272705 50.78300095 2.000000 2.000000
-20.60400009 -747.52008057 51.52439880 2.000000 2.000000
-52.42369843 -777.70770264 45.60100174 2.000000 2.000000
-67.96559906 -769.08709717 57.76160049 2.000000 2.000000
-84.71399689 -744.07788086 62.59220123 2.000000 2.000000
-93.12169647 -748.83801270 57.51739883 2.000000 2.000000
-103.35579681 -735.96582031 59.08660126 2.000000 2.000000
-54.68930054 -771.76062012 53.60369873 2.000000 2.000000
-32.29729843 -742.33081055 51.37419891 2.000000 2.000000
-73.98390198 -742.27130127 65.77510071 2.000000 2.000000
-88.16979980 -737.72668457 62.21780014 1.000000 1.000000
-66.05989838 -724.06481934 69.58399963 2.000000 2.000000
-101.08260345 -716.36810303 63.34249878 2.000000 2.000000
-73.94159698 -762.75537109 35.02700043 2.000000 2.000000
-99.44550323 -724.87048340 63.21170044 2.000000 2.000000
-105.91989899 -727.68499756 59.43960190 2.000000 2.000000
-106.45549774 -731.99957275 58.06959915 2.000000 2.000000
-118.50029755 -738.29302979 50.66899872 2.000000 2.000000
-100.89279938 -729.43798828 61.52899933 2.000000 2.000000
-112.31179810 -715.88232422 55.02890015 2.000000 2.000000
-104.31500244 -728.64312744 59.94029999 2.000000 2.000000
-33.90859985 -742.79931641 50.66049957 2.000000 2.000000
-61.09669876 -778.29321289 45.12440109 2.000000 2.000000
-58.06100082 -785.17718506 31.87050056 2.000000 2.000000
-106.21179962 -741.26007080 55.20029831 2.000000 2.000000
-22.21500015 -747.91101074 50.40859985 2.000000 2.000000
-93.73490143 -753.53247070 52.79940033 2.000000 2.000000
-94.77259827 -750.88067627 55.55759811 2.000000 2.000000
-64.63279724 -775.83697510 48.44210052 2.000000 2.000000
-73.65049744 -734.90911865 68.54239655 2.000000 2.000000
-83.78710175 -769.31927490 31.61940002 2.000000 2.000000
-115.75980377 -719.85711670 52.02640152 2.000000 2.000000
-92.40110016 -762.08367920 45.01309967 2.000000 2.000000
-73.19139862 -739.79321289 67.34449768 2.000000 2.000000
-83.50689697 -755.11853027 55.93420029 2.000000 2.000000
-98.31459808 -710.25598145 65.28130341 2.000000 2.000000
-19.69499969 -747.00177002 52.51929855 2.000000 2.000000
-106.60859680 -728.52972412 58.65290070 2.000000 2.000000
-86.88649750 -762.25811768 47.38130188 2.000000 2.000000
-94.72139740 -740.27929688 60.59170151 2.000000 2.000000
-90.67810059 -738.16900635 62.37020111 2.000000 2.000000
-85.29219818 -768.67187500 31.99309921 2.000000 2.000000
-104.31060028 -734.87182617 58.60089874 2.000000 2.000000
-26.45820045 -742.52038574 52.71379852 2.000000 2.000000
-64.08660126 -773.38977051 52.59590149 2.000000 2.000000
-77.57180023 -734.89758301 68.14659882 2.000000 2.000000
-101.19390106 -736.07238770 60.00979996 2.000000 2.000000
-73.09259796 -735.04669189 68.59120178 2.000000 2.000000
-65.08550262 -767.79138184 57.63819885 2.000000 2.000000
-105.62819672 -728.17321777 59.47280121 2.000000 2.000000
-69.49220276 -734.18450928 69.14469910 2.000000 2.000000
-51.95289993 -782.98187256 35.36729813 2.000000 2.000000
-41.10630035 -776.92626953 38.31840134 2.000000 2.000000
-103.91179657 -732.84069824 59.55879974 2.000000 2.000000
-73.72180176 -770.13677979 58.76509857 2.000000 2.000000
-28.62989998 -743.14471436 51.13349915 2.000000 2.000000
-59.31990051 -780.79052734 40.13280106 2.000000 2.000000
-67.19850159 -766.19702148 59.83890152 2.000000 2.000000
-109.80130005 -720.36181641 57.05379868 2.000000 2.000000
-73.04519653 -740.01580811 67.25679779 2.000000 2.000000
-60.83940125 -786.99377441 21.55590057 2.000000 2.000000
-42.23789978 -744.70788574 42.97980118 1.000000 1.000000
-91.02799988 -737.70947266 62.34899902 2.000000 2.000000
-81.97329712 -745.43157959 61.16049957 2.000000 2.000000
-45.62110138 -744.40942383 39.87189865 1.000000 1.000000
-51.94919968 -771.77667236 54.30640030 2.000000 2.000000
-118.16629791 -715.41217041 48.20399857 2.000000 2.000000
-66.85449982 -782.97497559 37.58459854 2.000000 2.000000
-66.09320068 -767.46887207 58.07659912 2.000000 2.000000
-100.63849640 -735.59667969 60.36500168 2.000000 2.000000
-45.71329880 -774.52532959 45.37149811 2.000000 2.000000
-68.82740021 -765.24597168 61.65420151 2.000000 2.000000
-94.17369843 -755.74688721 50.66130066 2.000000 2.000000
-48.64839935 -739.81939697 8.64099979 1.000000 1.000000
-73.64610291 -725.90942383 70.47850037 2.000000 2.000000
-52.20790100 -785.39898682 28.87310028 2.000000 2.000000
-42.03810120 -781.16131592 33.31489944 2.000000 2.000000
-68.49210358 -785.99902344 31.81209946 2.000000 2.000000
-68.91770172 -733.27947998 69.30120087 2.000000 2.000000
-100.49089813 -732.80438232 61.01449966 2.000000 2.000000
-52.97769928 -784.04119873 33.74119949 2.000000 2.000000
-88.20369720 -744.75402832 62.12910080 2.000000 2.000000
-90.02279663 -754.95697021 52.95370102 2.000000 2.000000
-28.78100014 -744.49438477 50.40859985 2.000000 2.000000
-58.31019974 -746.94848633 41.65980148 1.000000 1.000000
-45.75210190 -740.87329102 5.68190002 1.000000 1.000000
-104.38230133 -740.84729004 56.57160187 2.000000 2.000000
-62.29420090 -745.98492432 47.32720184 1.000000 1.000000
-93.04640198 -721.83801270 65.82769775 2.000000 2.000000
-54.72790146 -742.06469727 25.04450035 1.000000 1.000000
-48.16730118 -739.93621826 8.35550022 1.000000 1.000000
-55.12590027 -779.97583008 42.08100128 2.000000 2.000000
-64.57060242 -778.83221436 44.41939926 2.000000 2.000000
-81.00450134 -739.51812744 61.48329926 1.000000 1.000000
-29.06839943 -741.98468018 51.60499954 2.000000 2.000000
-84.24179840 -748.64001465 59.74570084 2.000000 2.000000
-96.76850128 -727.64361572 63.94380188 2.000000 2.000000
-60.90140152 -787.49078369 19.66710091 2.000000 2.000000
-54.81480026 -785.90588379 28.34819984 2.000000 2.000000
-31.21739960 -742.12841797 51.62850189 2.000000 2.000000
-55.34640121 -782.01123047 38.78889847 2.000000 2.000000
-72.31880188 -742.83972168 57.86059952 1.000000 1.000000
-31.56590080 -747.08892822 47.47150040 2.000000 2.000000
-105.24949646 -741.51232910 55.66339874 2.000000 2.000000
-77.61139679 -735.81317139 67.55220032 2.000000 2.000000
-23.34239960 -748.36212158 49.54619980 2.000000 2.000000
-92.97219849 -749.18652344 57.43019867 2.000000 2.000000
-116.59149933 -741.68170166 50.46739960 2.000000 2.000000
-117.08139801 -735.68017578 52.10599899 2.000000 2.000000
-52.74349976 -761.23187256 63.39179993 2.000000 2.000000
-54.77500153 -779.12567139 45.00339890 2.000000 2.000000
-77.18109894 -732.04168701 69.42469788 2.000000 2.000000
-94.87550354 -763.80792236 43.67710114 2.000000 2.000000
-119.86699677 -717.61932373 46.91320038 2.000000 2.000000
-73.51470184 -731.03118896 69.64980316 2.000000 2.000000
-87.80159760 -755.74377441 53.17990112 2.000000 2.000000
-103.53410339 -726.71917725 60.84069824 2.000000 2.000000
-55.80970001 -745.93188477 40.72909927 1.000000 1.000000
-36.52629852 -743.48571777 48.63119888 2.000000 2.000000
-93.43720245 -766.55377197 42.51190186 2.000000 2.000000
-112.17350006 -727.28308105 54.84049988 2.000000 2.000000
-19.35350037 -747.07141113 52.62760162 2.000000 2.000000
-59.18009949 -776.70898438 46.94789886 2.000000 2.000000
-46.65290070 -772.35882568 50.21149826 2.000000 2.000000
-66.59539795 -777.82373047 45.69729996 2.000000 2.000000
-63.03630066 -749.20092773 31.38080025 1.000000 1.000000
-40.48070145 -777.97247314 36.30450058 2.000000 2.000000
-61.96160126 -764.17297363 58.50920105 2.000000 2.000000
-91.71700287 -720.56097412 65.85240173 2.000000 2.000000
-91.61409760 -733.05560303 64.16940308 2.000000 2.000000
-67.72589874 -735.28363037 69.55709839 2.000000 2.000000
-114.11440277 -740.84710693 51.85250092 2.000000 2.000000
-75.53929901 -730.14642334 69.89600372 2.000000 2.000000
-102.90660095 -729.39898682 60.68320084 2.000000 2.000000
-42.09059906 -775.42089844 40.76359940 2.000000 2.000000
-78.19319916 -736.14282227 67.58370209 2.000000 2.000000
-75.93470001 -742.82550049 59.08810043 1.000000 1.000000
-21.09460068 -747.14422607 51.65319824 2.000000 2.000000
-29.35939980 -747.48352051 47.65140152 2.000000 2.000000
-85.27429962 -770.63598633 30.80999947 2.000000 2.000000
-91.48480225 -738.46228027 62.27090073 2.000000 2.000000
-90.17459869 -772.64251709 28.61840057 2.000000 2.000000
-93.86930084 -715.61950684 65.64620209 2.000000 2.000000
-63.07350159 -777.84613037 46.33390045 2.000000 2.000000
-88.18840027 -744.69647217 62.29869843 2.000000 2.000000
-104.51429749 -730.83721924 59.73849869 2.000000 2.000000
-81.51950073 -745.80438232 61.37580109 2.000000 2.000000
-30.73800087 -747.06610107 47.83560181 2.000000 2.000000
-32.80690002 -749.23217773 45.33779907 2.000000 2.000000
-67.93270111 -744.42657471 54.65969849 1.000000 1.000000
-101.16179657 -733.61267090 60.45619965 2.000000 2.000000
-52.04859924 -784.17181396 32.74259949 2.000000 2.000000
-109.92610168 -740.97113037 53.63159943 2.000000 2.000000
-42.98170090 -773.97271729 44.25180054 2.000000 2.000000
-117.49680328 -718.67437744 49.83089828 2.000000 2.000000
-55.93230057 -783.58789063 35.41630173 2.000000 2.000000
-70.92960358 -786.09741211 30.26700020 2.000000 2.000000
-29.34000015 -747.09252930 48.10269928 2.000000 2.000000
-60.63800049 -747.78942871 47.73429871 1.000000 1.000000
-41.55690002 -776.27062988 39.56240082 2.000000 2.000000
-52.85179901 -779.11962891 43.71099854 2.000000 2.000000
-90.04540253 -755.31481934 52.43730164 2.000000 2.000000
-51.33829880 -771.69818115 55.08470154 2.000000 2.000000
-90.51779938 -734.99017334 63.69910049 2.000000 2.000000
-109.01640320 -739.66912842 54.92570114 2.000000 2.000000
-70.44770050 -768.42602539 59.20449829 2.000000 2.000000
-36.71390152 -746.02502441 46.20600128 2.000000 2.000000
-80.25260162 -755.63958740 57.65969849 2.000000 2.000000
-20.89049911 -747.45428467 51.46810150 2.000000 2.000000
-42.88460159 -776.79260254 39.34149933 2.000000 2.000000
-53.53160095 -781.37542725 38.71490097 2.000000 2.000000
-91.77760315 -766.25457764 43.03260040 2.000000 2.000000
-45.34820175 -743.52520752 38.59690094 1.000000 1.000000
-27.02680016 -747.59912109 48.05649948 2.000000 2.000000
-91.83200073 -726.72979736 65.54859924 2.000000 2.000000
-30.52420044 -745.21447754 49.25870132 2.000000 2.000000
-51.97570038 -776.05187988 46.55870056 2.000000 2.000000
-106.52410126 -720.90222168 59.62609863 2.000000 2.000000
-83.59850311 -743.86041260 62.63140106 2.000000 2.000000
-36.34239960 -743.28332520 48.48419952 2.000000 2.000000
-115.62680054 -714.57519531 51.44350052 2.000000 2.000000
-70.03690338 -765.16528320 62.26350021 2.000000 2.000000
-112.26380157 -727.62799072 54.65269852 2.000000 2.000000
-60.17279816 -777.71148682 45.50920105 2.000000 2.000000
-58.55260086 -746.51947021 37.84899902 1.000000 1.000000
-52.71110153 -777.81280518 45.67839813 2.000000 2.000000
-58.31140137 -778.96588135 43.88790131 2.000000 2.000000
-70.41519928 -782.67517090 35.85079956 2.000000 2.000000
-21.19720078 -747.00762939 51.72840118 2.000000 2.000000
-86.18589783 -748.29730225 59.70790100 2.000000 2.000000
-50.59569931 -773.57092285 49.64080048 2.000000 2.000000
-89.23770142 -757.72271729 50.54140091 2.000000 2.000000
-111.96119690 -740.56652832 53.04240036 2.000000 2.000000
-106.23699951 -720.74530029 59.85169983 2.000000 2.000000
-100.50289917 -717.32598877 63.15510178 2.000000 2.000000
-75.27989960 -742.74957275 59.11370087 1.000000 1.000000
-54.79489899 -770.92321777 55.89089966 2.000000 2.000000
-54.55319977 -777.41351318 46.77600098 2.000000 2.000000
-104.34709930 -735.60321045 58.66040039 2.000000 2.000000
-78.62159729 -757.78833008 36.76760101 2.000000 2.000000
-93.20339966 -734.68103027 62.46860123 2.000000 2.000000
-64.07869720 -773.76129150 51.02809906 2.000000 2.000000
-68.80429840 -734.57971191 69.29470062 2.000000 2.000000
-75.80300140 -736.66937256 67.18209839 2.000000 2.000000
-34.59659958 -748.35839844 45.38660049 2.000000 2.000000
-100.03540039 -734.09179688 60.72010040 2.000000 2.000000
-26.99550056 -745.66241455 50.28260040 2.000000 2.000000
-51.24869919 -783.74902344 33.70130157 2.000000 2.000000
-99.63929749 -731.23889160 61.63740158 2.000000 2.000000
