-35.21969986 -798.66711426 55.91870117 2.000000 2.000000
-69.95500183 -804.15472412 52.60250092 2.000000 2.000000
-102.47689819 -773.68481445 68.31600189 2.000000 2.000000
-24.59930038 -795.50531006 51.59439850 2.000000 2.000000
-106.47399902 -777.40527344 65.61640167 2.000000 2.000000
-48.22060013 -803.80487061 55.10760117 2.000000 2.000000
-106.35700226 -785.26538086 57.26879883 2.000000 2.000000
-44.49100113 -799.15808105 58.76570129 2.000000 2.000000
-41.08599854 -808.58062744 40.27170181 2.000000 2.000000
-46.00469971 -787.72320557 75.08959961 2.000000 2.000000
-119.81030273 -775.03991699 59.76259995 2.000000 2.000000
-93.58350372 -779.94342041 64.47910309 2.000000 2.000000
-59.86819839 -760.14678955 50.48109818 1.000000 1.000000
-104.08940125 -776.72351074 66.26889801 2.000000 2.000000
-107.23809814 -773.47589111 67.94999695 2.000000 2.000000
-39.12429810 -784.08807373 76.38480377 2.000000 2.000000
-46.26919937 -810.96081543 40.02529907 2.000000 2.000000
-123.13140106 -766.70697021 62.07040024 2.000000 2.000000
-61.40620041 -800.14892578 63.73160172 2.000000 2.000000
-101.72200012 -786.89752197 56.32239914 2.000000 2.000000
-32.60979843 -783.04791260 75.13880157 2.000000 2.000000
-58.47800064 -802.19128418 63.18199921 2.000000 2.000000
-53.53850174 -793.64837646 69.97059631 2.000000 2.000000
-98.69339752 -748.77832031 79.84410095 2.000000 2.000000
-135.77709961 -778.08660889 46.63959885 2.000000 2.000000
-58.94120026 -757.18103027 47.73229980 1.000000 1.000000
-36.20859909 -814.89532471 22.91830063 2.000000 2.000000
-35.76399994 -783.89050293 75.84799957 2.000000 2.000000
-58.31159973 -757.00317383 42.01850128 1.000000 1.000000
-48.00260162 -741.45141602 -0.28279999 1.000000 1.000000
-58.82910156 -754.89562988 42.48659897 1.000000 1.000000
-40.00820160 -787.16558838 75.01270294 2.000000 2.000000
-33.51229858 -803.22100830 49.41350174 2.000000 2.000000
-103.34790039 -783.84222412 59.44189835 2.000000 2.000000
-55.62369919 -809.00708008 44.56209946 2.000000 2.000000
-131.92170715 -747.45520020 63.21009827 2.000000 2.000000
-106.27320099 -774.54791260 67.42530060 2.000000 2.000000
-123.05509949 -774.34997559 58.52569962 2.000000 2.000000
-55.90689850 -752.59271240 35.34949875 1.000000 1.000000
-60.68099976 -754.34472656 29.83090019 1.000000 1.000000
-70.51809692 -803.71911621 52.36959839 2.000000 2.000000
-63.63809967 -802.83801270 59.48270035 2.000000 2.000000
-57.89659882 -780.42431641 74.54409790 2.000000 2.000000
-130.62750244 -763.76800537 57.54600143 2.000000 2.000000
-56.68000031 -752.70751953 37.98080063 1.000000 1.000000
-45.22840118 -803.80682373 52.31029892 2.000000 2.000000
-58.09769821 -794.22949219 71.51599884 2.000000 2.000000
-100.76010132 -792.20538330 48.87639999 2.000000 2.000000
-104.52500153 -757.41558838 76.03749847 2.000000 2.000000
-152.51489258 -757.39160156 37.98239899 2.000000 2.000000
-132.02220154 -739.41119385 62.86560059 2.000000 2.000000
-44.02330017 -804.94531250 50.66510010 2.000000 2.000000
-35.70550156 -807.66302490 43.45729828 2.000000 2.000000
-81.37509918 -762.78881836 67.45899963 1.000000 1.000000
-94.65129852 -771.83331299 71.54879761 2.000000 2.000000
-107.42829895 -733.96258545 78.40010071 2.000000 2.000000
-108.39790344 -791.29541016 49.65760040 2.000000 2.000000
-30.72369957 -795.22760010 55.89580154 2.000000 2.000000
-121.48390198 -757.13507080 67.14600372 2.000000 2.000000
-121.66809845 -767.71508789 62.44549942 2.000000 2.000000
-99.86679840 -781.73937988 62.24819946 2.000000 2.000000
-44.23479843 -809.62969971 42.09510040 2.000000 2.000000
-60.56169891 -799.45867920 65.08650208 2.000000 2.000000
-140.65440369 -755.83038330 50.80879974 2.000000 2.000000
-62.64509964 -760.37707520 54.72299957 1.000000 1.000000
-43.15319824 -788.15228271 75.00910187 2.000000 2.000000
-42.66469955 -805.88262939 47.63460159 2.000000 2.000000
-68.87110138 -761.57678223 62.22660065 1.000000 1.000000
-47.17250061 -740.41418457 -1.23899996 1.000000 1.000000
-129.01280212 -743.48211670 66.28440094 2.000000 2.000000
-103.96060181 -749.34912109 78.29180145 2.000000 2.000000
-100.89409637 -791.17327881 50.36370087 2.000000 2.000000
-55.60789871 -774.51721191 73.87149811 2.000000 2.000000
-51.48249817 -815.61077881 31.63850021 2.000000 2.000000
-35.77930069 -797.22698975 58.50270081 2.000000 2.000000
-60.87730026 -762.58227539 58.89759827 1.000000 1.000000
-52.50770187 -814.79278564 32.54809952 2.000000 2.000000
-60.18019867 -804.16491699 59.53250122 2.000000 2.000000
-56.34980011 -796.34942627 68.46019745 2.000000 2.000000
-33.54000092 -775.68188477 78.15200043 2.000000 2.000000
-108.99169922 -770.59069824 69.80290222 2.000000 2.000000
-95.03250122 -751.76129150 80.00469971 2.000000 2.000000
-31.97410011 -795.89221191 57.82199860 2.000000 2.000000
-44.94179916 -804.71258545 51.25650024 2.000000 2.000000
-107.18710327 -787.24108887 54.76129913 2.000000 2.000000
-109.22409821 -779.24127197 63.89319992 2.000000 2.000000
-102.79260254 -744.35742188 79.49569702 2.000000 2.000000
-100.08070374 -774.79650879 67.78040314 2.000000 2.000000
-106.57700348 -784.34149170 58.82170105 2.000000 2.000000
-25.12430000 -748.39367676 53.10039902 2.000000 2.000000
-128.30270386 -775.06158447 54.15269852 2.000000 2.000000
-128.05259705 -771.51312256 56.50510025 2.000000 2.000000
-70.66750336 -798.87402344 58.67770004 2.000000 2.000000
-95.53780365 -772.79272461 70.28890228 2.000000 2.000000
-41.39490128 -814.06732178 27.31030083 2.000000 2.000000
-58.15409851 -799.85351563 65.42079926 2.000000 2.000000
-111.19470215 -747.23181152 76.95320129 2.000000 2.000000
-50.91059875 -812.99517822 35.70589828 2.000000 2.000000
-18.22690010 -753.11621094 52.84049988 2.000000 2.000000
-62.25450134 -784.53637695 75.48069763 2.000000 2.000000
-38.20119858 -809.04302979 38.98469925 2.000000 2.000000
-40.40879822 -810.98217773 33.60010147 2.000000 2.000000
-52.87440109 -806.76940918 55.64429855 2.000000 2.000000
-92.36109924 -757.83428955 78.34719849 2.000000 2.000000
-62.06740189 -754.91827393 31.21730042 1.000000 1.000000
-32.37459946 -800.90081787 51.28340149 2.000000 2.000000
-104.11199951 -796.92791748 43.71680069 2.000000 2.000000
-60.72259903 -783.78912354 75.29139709 2.000000 2.000000
-97.38240051 -771.62030029 69.97979736 2.000000 2.000000
-101.97579956 -790.24877930 51.71329880 2.000000 2.000000
-40.25719833 -804.82812500 49.20289993 2.000000 2.000000
-39.20610046 -797.15002441 61.40330124 2.000000 2.000000
-112.35379791 -764.98577881 67.92079926 2.000000 2.000000
-127.37650299 -772.67358398 56.04930115 2.000000 2.000000
-150.18339539 -755.12731934 41.20840073 2.000000 2.000000
-111.48300171 -743.69470215 77.56169891 2.000000 2.000000
-49.27619934 -801.98162842 57.44760132 2.000000 2.000000
-125.56539917 -753.54138184 65.91570282 2.000000 2.000000
-46.53499985 -739.79522705 -1.35800004 1.000000 1.000000
-64.22850037 -797.24761963 67.03520203 2.000000 2.000000
-145.16040039 -756.16217041 45.31010056 2.000000 2.000000
-81.37210083 -763.04797363 67.26999664 1.000000 1.000000
-96.61419678 -784.23638916 59.36489868 2.000000 2.000000
-55.61619949 -752.46441650 31.61860085 1.000000 1.000000
-103.25869751 -757.90832520 76.02230072 2.000000 2.000000
-63.41310120 -767.16131592 78.80729675 2.000000 2.000000
-105.58529663 -784.78247070 58.05939865 2.000000 2.000000
-28.94249916 -817.98687744 17.05069923 2.000000 2.000000
-113.20020294 -766.64990234 67.56980133 2.000000 2.000000
-96.84989929 -770.03698730 71.24649811 2.000000 2.000000
-132.12860107 -777.89501953 49.32049942 2.000000 2.000000
-79.42530060 -769.36791992 38.18280029 2.000000 2.000000
-51.94169998 -798.20678711 68.24990082 2.000000 2.000000
-121.57129669 -749.26690674 69.39820099 2.000000 2.000000
-122.68389893 -764.92517090 63.32669830 2.000000 2.000000
-109.70950317 -780.43701172 62.56439972 2.000000 2.000000
-118.01229858 -757.91442871 68.84290314 2.000000 2.000000
-106.51509857 -756.94610596 76.01889801 2.000000 2.000000
-103.35540009 -773.77587891 68.51349640 2.000000 2.000000
-45.24060059 -804.59661865 50.87239838 2.000000 2.000000
-103.20929718 -783.47302246 59.59460068 2.000000 2.000000
-94.20279694 -777.76568604 31.85099983 2.000000 2.000000
-30.27689934 -817.40948486 16.54969978 2.000000 2.000000
-61.30170059 -762.10467529 58.25540161 1.000000 1.000000
-56.20330048 -750.12841797 25.99990082 1.000000 1.000000
-132.69349670 -756.86230469 58.57220078 2.000000 2.000000
-49.42890167 -810.57391357 40.76369858 2.000000 2.000000
-56.91680145 -797.73852539 67.71610260 2.000000 2.000000
-108.65080261 -775.78668213 66.34570313 2.000000 2.000000
-104.25740051 -781.60089111 61.42210007 2.000000 2.000000
-40.79499817 -812.18621826 30.31229973 2.000000 2.000000
-39.10559845 -805.62908936 48.33639908 2.000000 2.000000
-97.46260071 -789.17791748 53.28409958 2.000000 2.000000
-55.62080002 -752.00128174 29.68650055 1.000000 1.000000
-39.84149933 -803.63031006 51.37469864 2.000000 2.000000
-51.63700104 -813.92810059 34.10910034 2.000000 2.000000
-48.04430008 -800.41107178 59.17060089 2.000000 2.000000
-35.54370117 -808.80322266 39.90810013 2.000000 2.000000
-102.70500183 -773.35601807 68.49659729 2.000000 2.000000
-110.15899658 -749.44097900 76.89289856 2.000000 2.000000
-88.58650208 -763.26940918 69.55010223 1.000000 1.000000
-94.39610291 -780.54730225 64.01180267 2.000000 2.000000
-93.96920013 -779.66357422 64.67430115 2.000000 2.000000
-57.37659836 -751.46221924 32.93970108 1.000000 1.000000
-49.83710098 -795.05603027 69.85870361 2.000000 2.000000
-41.73369980 -807.10772705 45.23289871 2.000000 2.000000
-48.00770187 -812.16729736 37.32270050 2.000000 2.000000
-96.25890350 -783.16882324 61.07839966 2.000000 2.000000
-103.21559906 -736.45819092 79.22080231 2.000000 2.000000
-25.56119919 -795.81317139 51.74179840 2.000000 2.000000
-29.40150070 -800.77758789 49.03430176 2.000000 2.000000
-95.45899963 -773.46057129 69.78250122 2.000000 2.000000
-124.29969788 -760.28448486 63.74470139 2.000000 2.000000
-55.84090042 -804.63311768 62.53400040 2.000000 2.000000
-56.01839828 -752.79718018 35.75790024 1.000000 1.000000
-113.66269684 -765.42761230 67.47570038 2.000000 2.000000
-63.30360031 -783.01428223 76.23349762 2.000000 2.000000
-65.34410095 -782.70147705 77.39649963 2.000000 2.000000
-52.08560181 -783.96307373 70.51909637 1.000000 1.000000
-48.65349960 -802.44812012 57.52109909 2.000000 2.000000
-136.06680298 -756.04827881 55.55170059 2.000000 2.000000
-124.98650360 -766.07427979 61.05799866 2.000000 2.000000
-103.75610352 -786.15728760 56.13579941 2.000000 2.000000
-98.46640015 -764.34381104 70.95069885 1.000000 1.000000
-96.04129791 -759.65319824 76.65119934 2.000000 2.000000
-29.12520027 -751.01348877 49.50249863 2.000000 2.000000
-132.87710571 -745.56787109 64.11170197 2.000000 2.000000
-27.45050049 -807.86212158 39.41730118 2.000000 2.000000
-96.92410278 -749.91351318 80.02559662 2.000000 2.000000
-49.40850067 -809.70672607 43.75979996 2.000000 2.000000
-122.77600098 -747.07098389 69.07109833 2.000000 2.000000
-106.81690216 -784.60760498 58.16239929 2.000000 2.000000
-93.74600220 -777.57171631 66.81819916 2.000000 2.000000
-53.97549820 -809.37597656 44.07329941 2.000000 2.000000
-93.94200134 -777.56909180 66.83200073 2.000000 2.000000
-135.30369568 -760.83007813 54.06880188 2.000000 2.000000
-49.78950119 -812.17590332 38.38219833 2.000000 2.000000
-79.59310150 -771.15008545 37.25579834 2.000000 2.000000
-82.17800140 -762.01751709 68.11869812 1.000000 1.000000
-132.64799500 -766.37078857 54.79750061 2.000000 2.000000
-58.79990005 -754.35388184 37.30350113 1.000000 1.000000
-67.96369934 -795.29992676 67.73690033 2.000000 2.000000
-104.87699890 -731.21282959 77.15260315 2.000000 2.000000
-29.85280037 -805.98217773 43.22159958 2.000000 2.000000
-100.64749908 -787.05712891 55.87149811 2.000000 2.000000
-102.01740265 -790.34582520 51.58160019 2.000000 2.000000
-44.54880142 -739.28021240 0.42250001 1.000000 1.000000
-50.90539932 -811.31152344 39.16429901 2.000000 2.000000
-36.19100189 -779.38879395 77.84700012 2.000000 2.000000
-131.27090454 -758.18231201 59.72949982 2.000000 2.000000
-24.87540054 -799.86120605 45.30530167 2.000000 2.000000
-119.60829926 -767.76690674 63.65950012 2.000000 2.000000
-120.54160309 -757.45507813 67.49459839 2.000000 2.000000
-111.09130096 -779.23217773 63.44850159 2.000000 2.000000
-109.64330292 -784.95538330 58.00009918 2.000000 2.000000
-96.75589752 -782.92498779 61.37009811 2.000000 2.000000
-67.99330139 -800.90386963 58.44710159 2.000000 2.000000
-53.18560028 -789.29656982 73.35019684 2.000000 2.000000
-104.71179962 -749.55987549 78.25430298 2.000000 2.000000
-34.56230164 -775.08947754 79.48000336 2.000000 2.000000
-41.95800018 -786.56591797 75.39869690 2.000000 2.000000
-59.72040176 -769.02227783 66.78520203 1.000000 1.000000
-63.33639908 -764.55828857 63.76979828 1.000000 1.000000
-100.87449646 -761.66870117 74.61509705 2.000000 2.000000
-107.53070068 -752.27941895 77.08959961 2.000000 2.000000
-136.41549683 -762.21899414 52.56769943 2.000000 2.000000
-94.19259644 -787.74267578 56.16979980 2.000000 2.000000
-23.90340042 -803.79418945 40.10779953 2.000000 2.000000
-56.49369812 -797.67541504 67.51889801 2.000000 2.000000
-65.35009766 -796.75177002 66.87020111 2.000000 2.000000
-98.44560242 -760.35687256 74.83959961 2.000000 2.000000
-122.58760071 -771.26501465 60.15539932 2.000000 2.000000
-58.89130020 -764.90838623 71.96320343 2.000000 2.000000
-100.53919983 -775.12689209 67.19879913 2.000000 2.000000
-95.03089905 -788.50177002 55.93889999 2.000000 2.000000
-38.81689835 -809.64941406 38.80459976 2.000000 2.000000
-63.97829819 -768.25958252 78.49720001 2.000000 2.000000
-32.36249924 -747.35412598 51.46879959 2.000000 2.000000
-52.39509964 -811.92657471 38.16809845 2.000000 2.000000
-41.67950058 -796.21038818 63.59540176 2.000000 2.000000
-46.13660049 -815.18731689 32.09820175 2.000000 2.000000
-57.05020142 -801.26312256 64.46029663 2.000000 2.000000
-124.66220093 -745.40588379 68.82879639 2.000000 2.000000
-106.95829773 -769.88531494 70.17350006 2.000000 2.000000
-124.71160126 -769.86376953 59.88019943 2.000000 2.000000
-97.81629944 -791.67498779 50.26549911 2.000000 2.000000
-125.13269806 -765.63018799 61.00270081 2.000000 2.000000
-27.60580063 -805.09277344 42.42470169 2.000000 2.000000
-26.76479912 -794.51751709 53.67610168 2.000000 2.000000
-91.80419922 -776.89459229 68.23249817 2.000000 2.000000
-32.71580124 -817.07800293 17.61820030 2.000000 2.000000
-119.30999756 -771.76879883 61.95899963 2.000000 2.000000
-32.52669907 -796.05212402 58.08580017 2.000000 2.000000
-134.35270691 -765.21881104 53.16540146 2.000000 2.000000
-23.42499924 -750.57757568 52.46860123 2.000000 2.000000
-146.66099548 -759.52081299 42.47890091 2.000000 2.000000
-95.57569885 -786.34881592 57.77289963 2.000000 2.000000
-40.29330063 -806.03021240 47.09009933 2.000000 2.000000
-27.19560051 -795.74627686 52.82329941 2.000000 2.000000
-127.63079834 -758.83331299 62.23220062 2.000000 2.000000
-78.43990326 -767.80377197 38.63690186 2.000000 2.000000
-32.63280106 -795.91418457 58.63710022 2.000000 2.000000
-130.49029541 -767.37548828 54.76190186 2.000000 2.000000
-56.39970016 -773.18988037 75.84459686 2.000000 2.000000
-137.64500427 -779.86297607 44.89879990 2.000000 2.000000
-105.70349884 -734.53442383 78.96820068 2.000000 2.000000
-105.15429688 -783.37091064 60.05250168 2.000000 2.000000
-102.36730194 -749.39129639 78.63339996 2.000000 2.000000
-104.51830292 -740.36077881 79.85009766 2.000000 2.000000
-37.86869812 -799.69238281 55.76350021 2.000000 2.000000
-104.62149811 -787.91937256 53.99440002 2.000000 2.000000
-103.53479767 -763.63891602 70.25930023 1.000000 1.000000
-42.45399857 -799.06018066 57.82149887 2.000000 2.000000
-45.17089844 -800.65722656 57.66719818 2.000000 2.000000
-33.91410065 -801.85357666 51.75030136 2.000000 2.000000
-93.95269775 -776.63397217 67.74320221 2.000000 2.000000
-69.82569885 -799.09741211 59.37500000 2.000000 2.000000
-49.23899841 -804.12811279 55.52999878 2.000000 2.000000
-69.26170349 -794.48278809 68.75360107 2.000000 2.000000
-48.69889832 -784.99859619 73.52459717 2.000000 2.000000
-52.88019943 -790.01971436 71.74700165 2.000000 2.000000
-34.25009918 -781.56787109 76.35590363 2.000000 2.000000
-92.38909912 -774.48431396 69.61039734 2.000000 2.000000
-99.34100342 -777.76019287 65.68750000 2.000000 2.000000
-46.97800064 -811.80017090 36.93780136 2.000000 2.000000
-53.81710052 -810.51989746 41.61149979 2.000000 2.000000
-37.13999939 -816.55627441 20.55960083 2.000000 2.000000
-103.97119904 -760.58319092 74.98329926 2.000000 2.000000
-93.44640350 -775.80627441 68.28029633 2.000000 2.000000
-93.81169891 -783.96582031 60.80270004 2.000000 2.000000
-106.32469940 -777.49688721 65.84700012 2.000000 2.000000
-63.07379913 -797.38348389 67.42829895 2.000000 2.000000
-31.70520020 -795.92492676 57.23500061 2.000000 2.000000
-37.10179901 -810.83227539 35.13869858 2.000000 2.000000
-28.11630058 -797.11920166 52.12929916 2.000000 2.000000
-66.39849854 -760.92608643 60.32669830 1.000000 1.000000
-70.95709991 -794.85119629 67.34140015 2.000000 2.000000
-53.11650085 -748.95751953 23.14970016 1.000000 1.000000
-117.76419830 -754.62310791 70.12380219 2.000000 2.000000
-128.71049500 -762.07067871 59.56779861 2.000000 2.000000
-92.67849731 -777.96520996 66.57379913 2.000000 2.000000
-49.86930084 -812.45727539 37.91619873 2.000000 2.000000
-71.68730164 -801.17492676 54.92100143 2.000000 2.000000
-104.41500092 -760.64678955 75.19020081 2.000000 2.000000
-65.33679962 -796.30572510 67.52809906 2.000000 2.000000
-117.00370026 -757.86962891 69.24970245 2.000000 2.000000
-38.33409882 -784.84130859 76.02619934 2.000000 2.000000
-102.47059631 -779.64117432 63.88560104 2.000000 2.000000
-102.40509796 -791.40527344 49.49290085 2.000000 2.000000
-80.99189758 -771.21582031 37.53210068 2.000000 2.000000
-101.30269623 -768.65118408 71.11250305 2.000000 2.000000
-37.51610184 -780.53851318 77.62509918 2.000000 2.000000
-106.12449646 -740.10491943 79.43920135 2.000000 2.000000
-96.51229858 -778.65368652 65.65859985 2.000000 2.000000
-63.98080063 -799.73681641 62.69430161 2.000000 2.000000
-108.95010376 -781.44122314 61.78379822 2.000000 2.000000
-48.12179947 -810.47412109 40.95280075 2.000000 2.000000
-24.66160011 -800.10327148 45.00550079 2.000000 2.000000
-38.22570038 -786.89111328 74.93900299 2.000000 2.000000
-28.84210014 -814.40759277 27.29190063 2.000000 2.000000
-32.00889969 -753.27569580 47.10789871 2.000000 2.000000
-45.07899857 -802.74908447 54.62720108 2.000000 2.000000
-43.18669891 -798.93988037 57.84209824 2.000000 2.000000
-53.25979996 -806.19091797 50.07429886 2.000000 2.000000
-95.61399841 -786.84478760 57.31430054 2.000000 2.000000
-95.89170074 -761.88189697 73.43750000 1.000000 1.000000
-107.59609985 -777.82690430 65.32379913 2.000000 2.000000
-143.28909302 -756.62207031 47.07389832 2.000000 2.000000
-93.02670288 -762.10681152 76.35030365 2.000000 2.000000
-72.00219727 -802.74291992 52.37710190 2.000000 2.000000
-55.86050034 -813.84020996 34.99940109 2.000000 2.000000
-103.03170013 -796.97491455 44.05390167 2.000000 2.000000
-136.46600342 -758.23559570 54.05039978 2.000000 2.000000
-102.91230011 -759.28442383 75.44860077 2.000000 2.000000
-66.51229858 -804.03857422 56.14770126 2.000000 2.000000
-102.87500000 -783.18841553 59.86560059 2.000000 2.000000
-50.62850189 -796.24597168 69.50219727 2.000000 2.000000
-44.15480042 -805.74108887 49.49560165 2.000000 2.000000
-106.71299744 -734.48382568 78.81150055 2.000000 2.000000
-30.58880043 -750.76171875 49.25619888 2.000000 2.000000
-112.44059753 -762.94812012 68.59909821 2.000000 2.000000
-31.73390007 -802.29260254 49.53290176 2.000000 2.000000
-97.53230286 -781.23571777 63.13750076 2.000000 2.000000
-55.27420044 -803.34179688 63.56800079 2.000000 2.000000
-64.70040131 -804.54620361 56.85269928 2.000000 2.000000
-60.89099884 -771.03057861 74.22019958 2.000000 2.000000
-96.55940247 -787.31567383 56.20280075 2.000000 2.000000
-45.42990112 -806.29827881 49.10779953 2.000000 2.000000
-95.63390350 -761.85131836 74.95230103 2.000000 2.000000
-108.39499664 -778.02508545 64.89459991 2.000000 2.000000
-56.75839996 -750.12390137 28.06749916 1.000000 1.000000
-125.39959717 -758.66320801 63.68510056 2.000000 2.000000
-63.72200012 -765.48651123 54.83039856 1.000000 1.000000
-54.34609985 -801.25207520 65.55329895 2.000000 2.000000
-50.00220108 -744.49438477 4.73019981 1.000000 1.000000
-64.73149872 -802.41638184 59.27099991 2.000000 2.000000
-91.36470032 -772.41088867 38.14519882 2.000000 2.000000
-52.12900162 -798.22290039 68.14150238 2.000000 2.000000
-37.26580048 -806.11199951 47.04919815 2.000000 2.000000
-128.00610352 -770.09112549 57.12110138 2.000000 2.000000
-73.48889923 -761.35198975 63.03699875 1.000000 1.000000
-152.31149292 -760.50817871 36.93840027 2.000000 2.000000
-127.48509979 -774.36987305 54.95299911 2.000000 2.000000
-131.66369629 -770.34777832 52.63560104 2.000000 2.000000
-103.40440369 -773.59051514 68.37950134 2.000000 2.000000
-137.61920166 -754.38592529 55.65610123 2.000000 2.000000
-21.57189941 -752.59918213 51.80419922 2.000000 2.000000
-31.74020004 -814.07092285 25.51399994 2.000000 2.000000
-71.23449707 -762.33502197 37.83700180 1.000000 1.000000
-44.70220184 -804.91900635 50.86090088 2.000000 2.000000
-57.43830109 -751.88922119 35.02610016 1.000000 1.000000
-23.60079956 -751.23138428 51.69179916 2.000000 2.000000
-39.86100006 -779.34057617 79.32319641 2.000000 2.000000
-74.19200134 -761.46398926 64.71869659 1.000000 1.000000
-32.54990005 -802.01739502 50.15599823 2.000000 2.000000
-108.28990173 -770.47772217 70.16139984 2.000000 2.000000
-54.32970047 -798.98620605 67.49479675 2.000000 2.000000
-102.06870270 -776.46057129 66.47070313 2.000000 2.000000
-61.87630081 -803.04431152 59.86100006 2.000000 2.000000
-108.38739777 -784.23297119 57.82400131 2.000000 2.000000
-109.22519684 -736.18920898 78.14060211 2.000000 2.000000
-68.84400177 -761.24511719 60.51549911 1.000000 1.000000
-37.61199951 -782.79669189 76.68250275 2.000000 2.000000
-131.12319946 -772.13031006 53.09939957 2.000000 2.000000
-133.38949585 -765.33081055 54.04690170 2.000000 2.000000
-132.44439697 -756.89581299 58.84609985 2.000000 2.000000
-57.74100113 -755.01440430 42.29119873 1.000000 1.000000
-97.07959747 -760.11376953 75.73339844 2.000000 2.000000
-128.47430420 -749.58312988 65.23709869 2.000000 2.000000
-100.99030304 -769.96832275 70.02290344 2.000000 2.000000
-55.11500168 -750.09851074 31.24449921 1.000000 1.000000
-60.75109863 -779.25842285 77.10250092 2.000000 2.000000
-59.68050003 -796.71258545 68.59670258 2.000000 2.000000
-64.52909851 -756.98272705 33.47499847 1.000000 1.000000
-137.77699280 -761.31951904 51.13460159 2.000000 2.000000
-99.04709625 -765.90881348 70.39129639 1.000000 1.000000
-100.41210175 -757.84692383 76.20829773 2.000000 2.000000
-69.67870331 -799.24218750 59.06280136 2.000000 2.000000
-36.54399872 -815.18231201 23.07600021 2.000000 2.000000
-120.59770203 -770.23309326 62.14699936 2.000000 2.000000
-107.15820313 -782.41461182 60.93330002 2.000000 2.000000
-106.34349823 -752.45281982 77.24340057 2.000000 2.000000
-111.23829651 -751.67449951 76.85260010 2.000000 2.000000
-19.71310043 -747.11267090 56.16830063 2.000000 2.000000
-106.89330292 -758.13922119 75.90740204 2.000000 2.000000
-99.72769928 -752.50701904 78.75330353 2.000000 2.000000
-131.18800354 -772.39587402 53.14160156 2.000000 2.000000
-98.22389984 -763.70562744 70.72059631 1.000000 1.000000
-36.66930008 -749.61291504 47.36589813 2.000000 2.000000
-36.67029953 -802.58337402 52.29800034 2.000000 2.000000
-132.83889771 -776.35931396 50.03540039 2.000000 2.000000
-46.55329895 -811.94451904 36.71549988 2.000000 2.000000
-52.00040054 -796.50219727 69.04450226 2.000000 2.000000
-43.42119980 -803.97039795 51.57569885 2.000000 2.000000
-32.66070175 -816.72558594 19.30929947 2.000000 2.000000
-54.80899811 -810.04309082 43.02560043 2.000000 2.000000
-39.14410019 -787.22460938 74.85929871 2.000000 2.000000
-109.27020264 -786.55548096 56.00960159 2.000000 2.000000
-35.23040009 -799.01739502 55.32080078 2.000000 2.000000
-123.30300140 -745.37512207 69.12319946 2.000000 2.000000
-47.08629990 -740.16387939 0.28450000 1.000000 1.000000
-67.01760101 -801.13452148 59.06600189 2.000000 2.000000
-135.17219543 -764.09747314 53.15760040 2.000000 2.000000
-150.78349304 -755.07537842 40.79959869 2.000000 2.000000
-94.04419708 -755.48828125 79.15440369 2.000000 2.000000
-42.07580185 -807.33612061 45.18730164 2.000000 2.000000
-51.66910172 -800.98980713 67.09519958 2.000000 2.000000
-103.92230225 -754.66027832 77.09700012 2.000000 2.000000
-105.86730194 -777.71197510 65.41719818 2.000000 2.000000
-40.35599899 -750.97729492 43.69889832 1.000000 1.000000
-93.04650116 -762.63812256 70.76830292 1.000000 1.000000
-109.84439850 -763.98150635 69.14550018 1.000000 1.000000
-131.09089661 -749.06481934 63.36909866 2.000000 2.000000
-59.66849899 -803.26501465 60.80810165 2.000000 2.000000
-101.22260284 -770.47692871 69.67900085 2.000000 2.000000
-61.81299973 -798.08782959 66.26969910 2.000000 2.000000
-103.28179932 -785.35382080 57.56930161 2.000000 2.000000
-70.13240051 -799.30108643 58.83280182 2.000000 2.000000
-41.90039825 -801.92608643 53.77959824 2.000000 2.000000
-57.98030090 -790.66760254 74.97460175 2.000000 2.000000
-92.39420319 -777.11907959 67.78430176 2.000000 2.000000
-87.75430298 -763.75207520 68.57289886 1.000000 1.000000
-38.53300095 -810.14990234 36.90039825 2.000000 2.000000
-118.63490295 -764.39227295 65.27559662 2.000000 2.000000
-132.37800598 -764.08398438 55.81909943 2.000000 2.000000
-135.85479736 -759.52862549 54.08850098 2.000000 2.000000
-55.29679871 -809.24188232 44.80120087 2.000000 2.000000
-67.43150330 -759.85400391 35.68930054 1.000000 1.000000
-53.35540009 -795.40301514 69.31230164 2.000000 2.000000
-45.90859985 -796.24151611 61.21969986 1.000000 1.000000
-136.30760193 -755.57598877 55.95560074 2.000000 2.000000
-101.87969971 -746.15100098 79.44290161 2.000000 2.000000
-42.40750122 -787.08477783 75.23629761 2.000000 2.000000
-104.84320068 -774.42248535 67.60269928 2.000000 2.000000
-60.77640152 -790.52252197 75.79530334 2.000000 2.000000
-23.04599953 -808.66540527 35.33720016 2.000000 2.000000
-70.81340027 -801.23632813 55.79249954 2.000000 2.000000
-61.84030151 -804.55902100 58.33520126 2.000000 2.000000
-59.88389969 -755.80017090 43.08489990 1.000000 1.000000
-131.39340210 -761.61737061 57.11890030 2.000000 2.000000
-49.10530090 -804.36688232 54.98440170 2.000000 2.000000
-41.67520142 -805.94232178 47.88349915 2.000000 2.000000
-48.58689880 -789.03833008 73.91480255 2.000000 2.000000
-113.29399872 -765.76422119 67.53859711 2.000000 2.000000
-94.54840088 -778.08172607 66.43479919 2.000000 2.000000
-111.21720123 -784.25781250 59.02159882 2.000000 2.000000
-37.46080017 -807.40301514 44.25949860 2.000000 2.000000
-38.41590118 -803.97583008 52.88230133 2.000000 2.000000
-91.43199921 -758.00219727 78.50409698 2.000000 2.000000
-41.96839905 -749.84741211 42.95740128 1.000000 1.000000
-38.10250092 -804.12872314 52.64360046 2.000000 2.000000
-43.04499817 -805.66552734 49.29370117 2.000000 2.000000
-129.13360596 -762.35327148 59.14120102 2.000000 2.000000
-92.25710297 -756.05462646 79.41190338 2.000000 2.000000
-105.40010071 -751.05841064 77.78520203 2.000000 2.000000
-62.16650009 -792.30603027 74.10569763 2.000000 2.000000
-134.29159546 -764.40490723 53.71419907 2.000000 2.000000
-98.40190125 -765.06872559 70.51010132 1.000000 1.000000
-143.13639832 -753.34887695 49.91839981 2.000000 2.000000
-62.62409973 -769.56311035 76.21360016 2.000000 2.000000
-89.68329620 -763.97229004 68.80110168 1.000000 1.000000
-91.44670105 -776.28771973 68.85970306 2.000000 2.000000
-42.43590164 -797.78338623 61.51990128 2.000000 2.000000
-28.92600060 -812.06872559 32.54389954 2.000000 2.000000
-96.18240356 -763.08502197 70.94390106 1.000000 1.000000
-101.10900116 -788.21411133 54.58420181 2.000000 2.000000
-92.00810242 -758.75909424 77.56670380 2.000000 2.000000
-51.73249817 -818.74951172 27.26409912 2.000000 2.000000
-91.71160126 -780.32519531 65.20899963 2.000000 2.000000
-103.15309906 -770.99847412 69.70909882 2.000000 2.000000
-22.97730064 -801.35400391 41.78929901 2.000000 2.000000
-53.57529831 -749.30181885 23.27989960 1.000000 1.000000
-27.98909950 -813.22991943 30.92799950 2.000000 2.000000
-48.49900055 -810.96191406 40.48310089 2.000000 2.000000
-31.11380005 -812.73669434 31.53639984 2.000000 2.000000
-61.08819962 -757.87738037 47.29299927 1.000000 1.000000
-83.64320374 -775.02008057 34.98479843 2.000000 2.000000
-56.79109955 -777.32629395 75.16819763 2.000000 2.000000
-34.29349899 -817.14929199 17.97410011 2.000000 2.000000
-139.79260254 -757.12890625 50.87110138 2.000000 2.000000
-110.75340271 -779.29901123 63.29769897 2.000000 2.000000
-44.07789993 -801.67877197 55.36520004 2.000000 2.000000
-34.77270126 -801.07287598 52.48120117 2.000000 2.000000
-68.33740234 -802.08557129 56.63050079 2.000000 2.000000
-68.84349823 -761.12371826 62.03459930 1.000000 1.000000
-149.32960510 -758.59332275 39.80310059 2.000000 2.000000
-33.20050049 -800.04779053 53.29339981 2.000000 2.000000
-104.97550201 -788.46380615 53.35350037 2.000000 2.000000
-71.59660339 -803.60479736 51.58259964 2.000000 2.000000
-39.66910172 -814.63769531 25.52519989 2.000000 2.000000
-51.79690170 -808.07971191 46.98120117 2.000000 2.000000
-56.03030014 -789.60052490 76.05539703 2.000000 2.000000
-92.63960266 -780.29302979 64.54470062 2.000000 2.000000
-31.21019936 -746.88671875 52.11330032 2.000000 2.000000
-110.94010162 -746.94372559 77.18730164 2.000000 2.000000
-103.31140137 -784.48608398 58.55550003 2.000000 2.000000
-95.43019867 -777.24871826 66.96739960 2.000000 2.000000
-65.23079681 -803.02001953 57.88650131 2.000000 2.000000
-96.99449921 -785.50347900 58.62400055 2.000000 2.000000
-127.43720245 -748.96978760 66.47640228 2.000000 2.000000
-123.18049622 -745.45391846 69.00990295 2.000000 2.000000
-54.27890015 -750.26318359 29.93810081 1.000000 1.000000
-98.90170288 -775.96820068 67.14939880 2.000000 2.000000
-27.41650009 -798.42858887 50.20449829 2.000000 2.000000
-27.56299973 -774.68017578 75.10800171 2.000000 2.000000
-100.81120300 -750.55902100 78.73040009 2.000000 2.000000
-94.64910126 -762.50457764 75.69920349 2.000000 2.000000
-96.94480133 -781.16241455 62.81620026 2.000000 2.000000
-128.95069885 -746.72540283 66.34069824 2.000000 2.000000
-65.17449951 -800.29522705 61.74800110 2.000000 2.000000
-123.01509857 -762.31848145 63.76350021 2.000000 2.000000
-117.57319641 -768.49682617 64.88459778 2.000000 2.000000
-47.98799896 -808.80572510 44.26630020 2.000000 2.000000
-32.56439972 -783.10687256 75.10399628 2.000000 2.000000
-130.38679504 -762.08190918 57.83290100 2.000000 2.000000
-78.94200134 -766.67602539 38.77880096 2.000000 2.000000
-129.20010376 -760.20507813 60.43239975 2.000000 2.000000
-99.33100128 -751.64379883 79.01889801 2.000000 2.000000
-151.63290405 -756.79492188 38.90750122 2.000000 2.000000
-34.99980164 -807.65429688 47.23899841 2.000000 2.000000
-47.35910034 -808.89550781 44.77239990 2.000000 2.000000
-106.08750153 -771.47058105 69.22409821 2.000000 2.000000
-29.23900032 -801.75421143 47.87720108 2.000000 2.000000
-46.19449997 -801.90631104 56.73199844 2.000000 2.000000
-36.33750153 -781.84912109 76.69059753 2.000000 2.000000
-124.27970123 -755.01177979 66.45130157 2.000000 2.000000
-58.93529892 -801.59362793 63.45330048 2.000000 2.000000
-61.54930115 -801.28918457 62.23789978 2.000000 2.000000
-110.04229736 -790.40972900 51.13790131 2.000000 2.000000
-56.62789917 -754.48437500 38.15750122 1.000000 1.000000
-59.65399933 -755.77508545 44.47180176 1.000000 1.000000
-101.47530365 -758.34167480 76.07080078 2.000000 2.000000
-59.63280106 -803.50958252 60.70050049 2.000000 2.000000
-56.03820038 -751.36737061 27.76539993 1.000000 1.000000
-25.70109940 -808.09967041 37.90779877 2.000000 2.000000
-38.54359818 -801.76672363 54.23139954 2.000000 2.000000
-37.44559860 -806.87548828 44.90990067 2.000000 2.000000
-120.63629913 -762.01348877 65.38359833 2.000000 2.000000
-99.57099915 -783.71490479 59.86629868 2.000000 2.000000
-38.26330185 -810.77789307 33.43460083 2.000000 2.000000
-100.86060333 -768.55126953 70.78900146 2.000000 2.000000
-37.26959991 -747.73040771 48.90069962 2.000000 2.000000
-120.69689941 -772.30932617 60.58789825 2.000000 2.000000
-115.99810028 -759.52960205 69.42359924 2.000000 2.000000
-48.44319916 -750.16577148 36.09930038 1.000000 1.000000
-56.58129883 -805.64709473 61.55640030 2.000000 2.000000
-91.29209900 -778.85821533 67.22440338 2.000000 2.000000
-114.19730377 -764.93658447 67.85880280 2.000000 2.000000
-139.64849854 -762.05242920 48.86159897 2.000000 2.000000
-120.75340271 -758.03021240 67.01730347 2.000000 2.000000
-101.79630280 -793.93328857 46.75080109 2.000000 2.000000
-131.74580383 -766.37371826 54.64630127 2.000000 2.000000
-100.27169800 -746.89227295 79.49150085 2.000000 2.000000
-105.50569916 -746.21252441 78.83159637 2.000000 2.000000
-120.48020172 -759.56768799 66.98280334 2.000000 2.000000
-59.48839951 -800.17907715 64.75289917 2.000000 2.000000
-101.35900116 -785.73571777 57.39910126 2.000000 2.000000
-51.09500122 -784.80340576 76.94629669 2.000000 2.000000
-20.76059914 -803.88128662 36.71110153 2.000000 2.000000
-101.61479950 -764.16058350 70.27369690 1.000000 1.000000
-106.49639893 -751.81402588 77.47730255 2.000000 2.000000
-28.32379913 -795.83911133 53.45500183 2.000000 2.000000
-59.34310150 -764.97192383 72.43070221 2.000000 2.000000
-70.13690186 -804.32342529 52.22719955 2.000000 2.000000
-56.32020187 -803.05297852 63.34740067 2.000000 2.000000
-111.31069946 -780.75982666 61.99769974 2.000000 2.000000
-67.64800262 -796.25750732 65.45330048 2.000000 2.000000
-32.70349884 -813.37847900 27.47389984 2.000000 2.000000
-130.85429382 -758.61462402 59.80080032 2.000000 2.000000
-126.40139771 -773.75781250 55.84349823 2.000000 2.000000
-59.01169968 -782.04272461 75.25170135 2.000000 2.000000
-60.94729996 -804.31219482 59.22840118 2.000000 2.000000
-50.08580017 -741.75598145 16.96279907 1.000000 1.000000
-31.71179962 -777.96759033 76.49369812 2.000000 2.000000
-36.18840027 -750.48712158 46.90710068 2.000000 2.000000
-66.98989868 -772.72308350 79.35510254 2.000000 2.000000
-131.71989441 -778.92791748 48.53739929 2.000000 2.000000
-36.81029892 -777.76641846 78.91249847 2.000000 2.000000
-104.54940033 -736.38732910 79.34439850 2.000000 2.000000
-80.57730103 -763.24768066 66.81099701 1.000000 1.000000
-97.71869659 -781.24932861 62.88470078 2.000000 2.000000
-26.34900093 -794.42071533 53.42509842 2.000000 2.000000
-129.89930725 -778.58972168 50.36579895 2.000000 2.000000
-98.56479645 -788.06610107 54.86529922 2.000000 2.000000
-52.34000015 -750.09417725 31.40970039 1.000000 1.000000
-108.13829803 -745.18420410 78.26450348 2.000000 2.000000
-56.75189972 -804.74719238 62.15539932 2.000000 2.000000
-103.13880157 -776.06750488 66.70980072 2.000000 2.000000
-127.80359650 -758.62738037 62.43640137 2.000000 2.000000
-94.75229645 -789.78088379 54.33789825 2.000000 2.000000
-42.32630157 -779.83251953 79.82499695 2.000000 2.000000
-149.32769775 -761.53338623 38.72129822 2.000000 2.000000
-107.09230042 -787.71118164 54.35309982 2.000000 2.000000
-118.70649719 -758.50128174 67.87470245 2.000000 2.000000
-95.30529785 -788.58007813 55.24679947 2.000000 2.000000
-30.60149956 -797.17620850 53.99649811 2.000000 2.000000
-57.29529953 -799.13720703 66.37159729 2.000000 2.000000
-47.25210190 -802.77581787 55.60129929 2.000000 2.000000
-19.18569946 -746.26568604 56.85820007 2.000000 2.000000
-59.20729828 -755.63940430 44.24489975 1.000000 1.000000
-61.22679901 -783.77416992 75.45539856 2.000000 2.000000
-100.80799866 -755.39031982 77.29769897 2.000000 2.000000
-105.93489838 -771.24407959 69.37110138 2.000000 2.000000
-65.69570160 -799.59857178 62.28440094 2.000000 2.000000
-106.57199860 -785.64141846 56.49560165 2.000000 2.000000
-45.94469833 -804.93688965 50.68870163 2.000000 2.000000
-96.23329926 -758.90692139 77.27709961 2.000000 2.000000
-103.44589996 -777.49627686 65.31670380 2.000000 2.000000
-57.05939865 -798.53991699 67.02239990 2.000000 2.000000
-52.59550095 -814.38171387 33.31790161 2.000000 2.000000
-124.92040253 -770.34600830 59.83890152 2.000000 2.000000
-95.68979645 -762.53320313 74.57679749 2.000000 2.000000
-136.32330322 -763.36682129 52.00180054 2.000000 2.000000
-126.25399780 -773.22192383 56.97890091 2.000000 2.000000
-30.67910004 -799.93762207 51.15879822 2.000000 2.000000
-94.26409912 -781.22009277 63.12939835 2.000000 2.000000
-97.12560272 -787.27722168 56.28720093 2.000000 2.000000
-136.22540283 -763.24737549 52.55329895 2.000000 2.000000
-102.10099792 -771.88568115 69.32800293 2.000000 2.000000
-68.56620026 -772.83447266 80.24240112 2.000000 2.000000
-28.47349930 -797.67742920 51.78760147 2.000000 2.000000
-45.38970184 -813.78540039 34.59619904 2.000000 2.000000
-121.79399872 -756.87237549 67.04199982 2.000000 2.000000
-99.92539978 -772.74420166 68.85299683 2.000000 2.000000
-141.39939880 -756.62341309 49.41239929 2.000000 2.000000
-63.20180130 -797.15582275 67.61730194 2.000000 2.000000
-141.65769958 -755.79467773 49.71220016 2.000000 2.000000
-123.74410248 -775.04321289 57.08449936 2.000000 2.000000
-56.11899948 -808.00000000 46.64030075 2.000000 2.000000
-103.78690338 -787.05200195 55.32049942 2.000000 2.000000
-121.73629761 -760.74401855 65.06120300 2.000000 2.000000
-52.05780029 -819.62988281 26.36020088 2.000000 2.000000
-48.69860077 -810.50610352 41.95389938 2.000000 2.000000
-106.28549957 -790.55718994 50.39059830 2.000000 2.000000
-95.84439850 -788.13299561 55.50389862 2.000000 2.000000
-38.59600067 -804.28790283 52.74169922 2.000000 2.000000
-123.05899811 -746.16882324 69.18350220 2.000000 2.000000
-51.14210129 -809.65368652 42.84249878 2.000000 2.000000
-57.51839828 -802.16430664 63.46289825 2.000000 2.000000
-95.90740204 -787.30377197 56.37519836 2.000000 2.000000
-53.61410141 -799.80560303 66.97100067 2.000000 2.000000
-39.92169952 -795.62701416 64.15039825 2.000000 2.000000
-138.14349365 -778.44750977 45.20119858 2.000000 2.000000
-137.99690247 -760.16192627 52.19400024 2.000000 2.000000
-53.87089920 -790.13531494 73.10980225 2.000000 2.000000
-64.37969971 -793.49041748 72.47180176 2.000000 2.000000
-108.44519806 -749.54071045 77.42700195 2.000000 2.000000
-61.35800171 -804.43878174 58.89390182 2.000000 2.000000
-108.09639740 -750.04217529 77.39089966 2.000000 2.000000
-32.87070084 -808.39367676 44.95520020 2.000000 2.000000
-31.93939972 -752.45343018 47.60430145 2.000000 2.000000
-134.87089539 -760.71990967 54.49300003 2.000000 2.000000
-53.37609863 -783.92132568 69.89939880 1.000000 1.000000
-67.54219818 -798.16992188 62.69459915 2.000000 2.000000
-129.06069946 -744.39379883 66.52709961 2.000000 2.000000
-114.74559784 -762.06427002 68.43039703 2.000000 2.000000
-100.73770142 -773.09069824 68.31230164 2.000000 2.000000
-52.89619827 -819.76110840 26.46969986 2.000000 2.000000
-133.13330078 -761.20440674 55.91379929 2.000000 2.000000
-113.88649750 -759.69531250 70.31700134 2.000000 2.000000
-102.54769897 -787.25891113 54.83309937 2.000000 2.000000
-38.12189865 -797.34167480 59.82759857 2.000000 2.000000
-19.67009926 -752.53637695 52.73210144 2.000000 2.000000
-121.00869751 -760.49688721 65.94850159 2.000000 2.000000
-94.59889984 -783.08337402 61.34049988 2.000000 2.000000
-101.05039978 -779.16577148 64.34629822 2.000000 2.000000
-98.36180115 -788.29840088 54.95380020 2.000000 2.000000
-90.78970337 -774.92272949 34.96490097 2.000000 2.000000
-58.13800049 -795.82507324 68.85639954 2.000000 2.000000
-43.30609894 -788.68408203 75.05750275 2.000000 2.000000
-94.08910370 -780.25921631 64.67720032 2.000000 2.000000
-60.62500000 -801.48748779 62.15179825 2.000000 2.000000
-138.25830078 -764.20941162 49.63869858 2.000000 2.000000
-89.21640015 -763.68420410 68.63400269 1.000000 1.000000
-35.61520004 -796.65863037 59.64110184 2.000000 2.000000
-31.20890045 -795.68041992 56.26449966 2.000000 2.000000
-19.17620087 -749.55621338 55.04510117 2.000000 2.000000
-41.52880096 -810.22387695 36.46939850 2.000000 2.000000
-46.81150055 -740.22552490 2.16079998 1.000000 1.000000
-99.36640167 -750.42077637 79.25379944 2.000000 2.000000
-54.66859818 -809.31408691 44.77980042 2.000000 2.000000
-50.05899811 -804.80078125 55.66930008 2.000000 2.000000
-104.46679688 -741.15447998 79.78150177 2.000000 2.000000
-101.29000092 -787.33898926 55.84749985 2.000000 2.000000
-75.60620117 -766.88787842 38.26919937 2.000000 2.000000
-109.35700226 -785.24951172 57.51530075 2.000000 2.000000
-105.68859863 -789.24902344 52.28630066 2.000000 2.000000
-114.92269897 -768.57330322 66.05799866 2.000000 2.000000
-110.93160248 -786.56951904 56.00889969 2.000000 2.000000
-43.98310089 -783.80859375 75.79239655 2.000000 2.000000
-102.53659821 -788.97271729 53.31750107 2.000000 2.000000
-51.74020004 -811.76062012 39.28530121 2.000000 2.000000
-126.17060089 -774.53717041 55.75149918 2.000000 2.000000
-93.46569824 -781.82659912 63.11999893 2.000000 2.000000
-84.49379730 -767.86071777 39.66249847 2.000000 2.000000
-108.58930206 -770.61932373 69.72170258 2.000000 2.000000
-55.72650146 -774.01190186 73.52700043 2.000000 2.000000
-44.77830124 -788.83001709 74.95469666 2.000000 2.000000
-100.66979980 -772.35192871 68.64969635 2.000000 2.000000
-55.23450089 -802.80230713 64.23799896 2.000000 2.000000
-128.69569397 -745.42718506 66.56600189 2.000000 2.000000
-38.32839966 -808.15167236 42.69689941 2.000000 2.000000
-131.84979248 -776.25958252 50.65159988 2.000000 2.000000
-16.67530060 -749.52557373 56.45759964 2.000000 2.000000
-65.04109955 -783.76501465 76.68180084 2.000000 2.000000
-100.51909637 -790.52282715 50.91289902 2.000000 2.000000
-29.18029976 -811.08459473 35.88109970 2.000000 2.000000
-120.12100220 -772.63671875 60.93009949 2.000000 2.000000
-110.89160156 -779.00598145 63.49319839 2.000000 2.000000
-69.93620300 -771.02911377 82.42160034 2.000000 2.000000
-51.87919998 -813.72357178 34.54719925 2.000000 2.000000
-55.38650131 -773.92578125 74.07710266 2.000000 2.000000
-129.18069458 -749.25817871 64.88289642 2.000000 2.000000
-97.75640106 -771.25891113 70.08630371 2.000000 2.000000
-28.03319931 -774.80181885 75.51899719 2.000000 2.000000
-102.04740143 -790.10308838 51.64910126 2.000000 2.000000
-109.26869965 -780.02410889 62.93809891 2.000000 2.000000
-56.05239868 -808.47607422 46.40119934 2.000000 2.000000
-110.68650055 -748.44427490 76.84919739 2.000000 2.000000
-51.05580139 -743.44897461 8.86639977 1.000000 1.000000
-133.64639282 -762.29229736 55.39960098 2.000000 2.000000
-116.70870209 -771.20928955 63.50630188 2.000000 2.000000
-53.76959991 -808.68951416 45.92459869 2.000000 2.000000
-111.12519836 -744.53979492 77.50540161 2.000000 2.000000
-26.99720001 -797.60717773 50.59159851 2.000000 2.000000
-37.70000076 -785.24377441 75.62870026 2.000000 2.000000
-103.08840179 -782.90490723 60.02119827 2.000000 2.000000
-52.37580109 -795.16131592 69.77929688 2.000000 2.000000
-55.86309814 -803.22869873 63.43190002 2.000000 2.000000
-94.10859680 -754.18432617 79.60500336 2.000000 2.000000
-132.72929382 -738.33892822 62.08039856 2.000000 2.000000
-63.61660004 -760.39172363 57.73260117 1.000000 1.000000
-103.13330078 -756.30462646 76.72299957 2.000000 2.000000
-68.18419647 -794.45507813 69.21730042 2.000000 2.000000
-122.41300201 -758.65307617 65.78659821 2.000000 2.000000
-58.05289841 -752.62902832 34.68019867 1.000000 1.000000
-144.59159851 -752.23840332 49.00849915 2.000000 2.000000
-107.33290100 -771.25091553 69.47460175 2.000000 2.000000
-31.50460052 -808.13940430 43.76689911 2.000000 2.000000
-56.35779953 -791.83929443 72.90630341 2.000000 2.000000
-22.26129913 -808.29461670 34.64609909 2.000000 2.000000
-107.69760132 -786.08428955 55.81650162 2.000000 2.000000
-102.01450348 -740.52307129 79.78099823 2.000000 2.000000
-57.58150101 -755.56622314 42.67459869 1.000000 1.000000
-46.55739975 -801.83520508 56.70629883 2.000000 2.000000
-25.46640015 -752.97308350 48.08100128 2.000000 2.000000
-103.44219971 -756.24810791 76.62490082 2.000000 2.000000
-94.38549805 -783.79052734 59.95840073 2.000000 2.000000
-40.35760117 -811.70227051 31.13240051 2.000000 2.000000
-45.15480042 -787.90399170 75.23059845 2.000000 2.000000
-130.18910217 -762.92492676 58.34809875 2.000000 2.000000
-85.26239777 -763.33728027 68.47019958 1.000000 1.000000
-57.21780014 -796.50329590 68.53170013 2.000000 2.000000
-101.39640045 -793.72888184 46.87919998 2.000000 2.000000
-51.24050140 -784.26470947 79.49369812 2.000000 2.000000
-62.23949814 -803.26397705 59.41320038 2.000000 2.000000
-43.29850006 -790.19842529 74.64720154 2.000000 2.000000
-105.72100067 -753.37567139 77.08689880 2.000000 2.000000
-27.73390007 -814.31787109 27.31780052 2.000000 2.000000
-98.49870300 -744.73840332 80.14440155 2.000000 2.000000
-17.37280083 -752.48278809 54.17580032 2.000000 2.000000
-130.83659363 -773.06402588 53.15520096 2.000000 2.000000
-76.85520172 -760.76007080 65.62779999 1.000000 1.000000
-53.10150146 -812.97570801 35.86669922 2.000000 2.000000
-38.15259933 -814.89727783 23.80839920 2.000000 2.000000
-58.57350159 -801.36480713 63.87469864 2.000000 2.000000
-132.97889709 -764.58630371 55.63520050 2.000000 2.000000
-99.51100159 -763.60192871 71.04080200 1.000000 1.000000
-96.99659729 -773.02099609 69.38800049 2.000000 2.000000
-52.26750183 -747.50207520 20.66589928 1.000000 1.000000
-61.47719955 -763.32250977 60.31750107 1.000000 1.000000
-52.54100037 -813.91088867 34.16439819 2.000000 2.000000
-105.50879669 -756.23577881 76.38490295 2.000000 2.000000
-94.89350128 -781.41687012 62.80910110 2.000000 2.000000
-74.02580261 -763.63537598 39.26010132 2.000000 2.000000
-98.55819702 -778.16992188 65.54329681 2.000000 2.000000
-122.85030365 -753.78997803 67.60310364 2.000000 2.000000
-119.40969849 -769.48962402 63.18450165 2.000000 2.000000
-130.68049622 -772.45281982 53.94979858 2.000000 2.000000
-103.36660004 -781.53082275 61.56219864 2.000000 2.000000
-137.84399414 -765.54718018 48.98070145 2.000000 2.000000
-52.29610062 -810.34368896 42.27970123 2.000000 2.000000
-63.71089935 -799.94860840 62.68420029 2.000000 2.000000
-57.73659897 -804.51440430 61.60469818 2.000000 2.000000
-145.47290039 -754.06317139 46.31800079 2.000000 2.000000
-108.28730011 -780.22967529 63.02040100 2.000000 2.000000
-96.66940308 -775.16180420 67.96299744 2.000000 2.000000
-132.68209839 -764.14062500 55.16299820 2.000000 2.000000
-59.10409927 -754.48992920 40.94070053 1.000000 1.000000
-101.54689789 -793.88671875 46.77399826 2.000000 2.000000
-57.94419861 -803.51239014 62.29330063 2.000000 2.000000
-135.22430420 -760.25122070 54.44070053 2.000000 2.000000
-57.79769897 -755.60858154 38.24589920 1.000000 1.000000
-41.06399918 -796.60131836 62.86949921 2.000000 2.000000
-40.19589996 -785.35980225 75.72820282 2.000000 2.000000
-35.28099823 -801.58050537 52.26770020 2.000000 2.000000
-110.20649719 -783.38922119 60.25889969 2.000000 2.000000
-99.36170197 -764.08392334 70.55509949 1.000000 1.000000
-23.44009972 -801.84539795 41.57939911 2.000000 2.000000
-42.03189850 -809.54241943 37.77700043 2.000000 2.000000
-31.50670052 -813.94018555 25.65900040 2.000000 2.000000
-25.16460037 -752.33331299 49.47760010 2.000000 2.000000
-68.98239899 -795.28417969 67.20880127 2.000000 2.000000
-96.10089874 -786.13708496 57.93700027 2.000000 2.000000
-49.68310165 -817.95788574 28.02109909 2.000000 2.000000
-101.99299622 -751.72119141 78.13919830 2.000000 2.000000
-24.93350029 -750.10430908 51.88819885 2.000000 2.000000
-53.28879929 -782.35937500 70.72170258 1.000000 1.000000
-125.68080139 -771.01068115 58.73970032 2.000000 2.000000
-97.05220032 -779.88751221 64.62930298 2.000000 2.000000
-116.04889679 -758.22760010 69.82389832 2.000000 2.000000
-38.41559982 -814.31481934 25.08419991 2.000000 2.000000
-29.77269936 -817.53381348 16.61660004 2.000000 2.000000
-31.97599983 -799.71191406 52.41320038 2.000000 2.000000
-45.20069885 -809.55798340 43.14810181 2.000000 2.000000
-106.54930115 -761.02471924 74.73660278 2.000000 2.000000
