-89.04769897 -769.69439697 43.15829849 2.000000 2.000000
-114.96949768 -784.06481934 81.67819977 2.000000 2.000000
-17.93910027 -817.22210693 74.87329865 2.000000 2.000000
-46.71220016 -851.42230225 39.97669983 2.000000 2.000000
-84.58830261 -792.23797607 88.08429718 2.000000 2.000000
-29.03009987 -839.57299805 57.43370056 2.000000 2.000000
-63.13880157 -827.36419678 73.12480164 2.000000 2.000000
-134.72560120 -789.47808838 72.41089630 2.000000 2.000000
-37.10810089 -852.07391357 36.44369888 2.000000 2.000000
-18.28039932 -811.99810791 77.90119934 2.000000 2.000000
-81.41000366 -794.63641357 87.93920135 2.000000 2.000000
-114.70020294 -788.47497559 78.79489899 2.000000 2.000000
-57.45809937 -822.81597900 79.75890350 2.000000 2.000000
-30.89970016 -815.11791992 82.82160187 2.000000 2.000000
-173.81910706 -777.48406982 53.31430054 2.000000 2.000000
-26.18490028 -808.62902832 84.37400055 2.000000 2.000000
-55.29439926 -825.65069580 77.00980377 2.000000 2.000000
-74.81880188 -788.93231201 91.18470001 2.000000 2.000000
-56.81399918 -811.79797363 83.01439667 2.000000 2.000000
-32.91080093 -808.51751709 87.32700348 2.000000 2.000000
-13.64610004 -845.68072510 43.77280045 2.000000 2.000000
-119.80429840 -744.69348145 88.63210297 2.000000 2.000000
-15.73820019 -751.20361328 51.36299896 2.000000 2.000000
-42.51520157 -849.15460205 45.05160141 2.000000 2.000000
-19.46850014 -819.02972412 75.40319824 2.000000 2.000000
-42.60770035 -835.34613037 64.06269836 2.000000 2.000000
-120.18720245 -775.00878906 88.86029816 2.000000 2.000000
-45.05519867 -837.89611816 61.82170105 2.000000 2.000000
-76.34390259 -800.05468750 88.96080017 2.000000 2.000000
-23.64599991 -853.74737549 27.81349945 2.000000 2.000000
-21.90679932 -856.69702148 20.17329979 2.000000 2.000000
-51.43719864 -849.60247803 38.37760162 2.000000 2.000000
-40.80739975 -812.35937500 86.00759888 2.000000 2.000000
-76.11630249 -786.23919678 91.17910004 2.000000 2.000000
-72.86509705 -794.03387451 89.87249756 2.000000 2.000000
-55.28870010 -786.53741455 85.48329926 2.000000 2.000000
-159.59140015 -779.57067871 60.66130066 2.000000 2.000000
-50.16099930 -836.76049805 70.13230133 2.000000 2.000000
-110.14830017 -758.75170898 91.66979980 2.000000 2.000000
-113.90190125 -804.83331299 61.29959869 2.000000 2.000000
-43.24000168 -813.81152344 84.57879639 2.000000 2.000000
-79.90850067 -785.76440430 91.03780365 2.000000 2.000000
-139.93719482 -784.88708496 71.14869690 2.000000 2.000000
-44.22790146 -812.98272705 85.07720184 2.000000 2.000000
-152.09080505 -753.25671387 82.01129913 2.000000 2.000000
-158.09790039 -773.56011963 63.97420120 2.000000 2.000000
-41.28170013 -819.76501465 81.96130371 2.000000 2.000000
-142.79660034 -778.35858154 72.85559845 2.000000 2.000000
-67.94059753 -809.63287354 78.26609802 2.000000 2.000000
-92.10900116 -797.32250977 81.73979950 2.000000 2.000000
-18.57559967 -844.44012451 47.40990067 2.000000 2.000000
-71.28500366 -806.55432129 77.64929962 2.000000 2.000000
-23.93230057 -842.43670654 52.25220108 2.000000 2.000000
-71.77500153 -787.48461914 90.67839813 2.000000 2.000000
-60.59249878 -771.85778809 65.33129883 1.000000 1.000000
-156.20719910 -776.00152588 64.51719666 2.000000 2.000000
-62.63470078 -794.02209473 88.25060272 2.000000 2.000000
-58.46950150 -828.57818604 72.73110199 2.000000 2.000000
-132.21929932 -784.10510254 75.78990173 2.000000 2.000000
-11.70810032 -851.02557373 36.20360184 2.000000 2.000000
-134.38380432 -786.42517090 73.91110229 2.000000 2.000000
-86.85109711 -794.73632813 86.30269623 2.000000 2.000000
-55.49570084 -765.28637695 49.84870148 1.000000 1.000000
-85.71340179 -791.50598145 87.72460175 2.000000 2.000000
-25.94560051 -836.48901367 60.80970001 2.000000 2.000000
-121.17630005 -748.37121582 90.39399719 2.000000 2.000000
-155.38949585 -783.55108643 63.11899948 2.000000 2.000000
-121.03079987 -794.51312256 73.95860291 2.000000 2.000000
-50.23369980 -848.48309326 40.85409927 2.000000 2.000000
-59.77640152 -777.48150635 76.55650330 1.000000 1.000000
-120.37709808 -785.28961182 81.35720062 2.000000 2.000000
-59.68909836 -776.64489746 67.71119690 1.000000 1.000000
-39.76219940 -789.60150146 89.25650024 2.000000 2.000000
-121.14350128 -760.98919678 90.38970184 2.000000 2.000000
-25.71910095 -750.78717041 49.11750031 2.000000 2.000000
-33.38010025 -809.30908203 87.20330048 2.000000 2.000000
-26.66139984 -752.01531982 48.10070038 2.000000 2.000000
-113.35189819 -810.19610596 50.18830109 2.000000 2.000000
-145.73320007 -790.47131348 66.51940155 2.000000 2.000000
-48.78779984 -836.80670166 71.01100159 2.000000 2.000000
-56.53889847 -811.68121338 82.84010315 2.000000 2.000000
-70.59899902 -795.58587646 90.25279999 2.000000 2.000000
-106.31079865 -789.91809082 77.89029694 2.000000 2.000000
-34.33039856 -813.71087646 84.33000183 2.000000 2.000000
-97.37689972 -776.45349121 80.93399811 1.000000 1.000000
-27.61240005 -851.19207764 35.77799988 2.000000 2.000000
-54.50000000 -754.88879395 30.11809921 1.000000 1.000000
-50.22750092 -802.17767334 80.68479919 1.000000 1.000000
-125.06939697 -748.34027100 89.13950348 2.000000 2.000000
-105.68430328 -793.53521729 75.23770142 2.000000 2.000000
-9.65019989 -752.08972168 53.70610046 2.000000 2.000000
-115.45449829 -801.63262939 65.99639893 2.000000 2.000000
-11.43400002 -839.07232666 54.72999954 2.000000 2.000000
-111.39980316 -765.81042480 90.47709656 2.000000 2.000000
-120.49330139 -759.27416992 90.55660248 2.000000 2.000000
-73.22969818 -771.64019775 40.14599991 2.000000 2.000000
-23.53840065 -755.50329590 47.15999985 2.000000 2.000000
-10.34399986 -752.90570068 53.17959976 2.000000 2.000000
-9.78460026 -845.92797852 43.92839813 2.000000 2.000000
-36.75579834 -802.93090820 89.11920166 2.000000 2.000000
-54.62699890 -826.53009033 76.27010345 2.000000 2.000000
-13.34039974 -751.72692871 52.10409927 2.000000 2.000000
-41.78820038 -822.90808105 74.47209930 1.000000 1.000000
-45.86059952 -853.52728271 36.13830185 2.000000 2.000000
-153.42599487 -789.76409912 62.18479919 2.000000 2.000000
-148.07200623 -791.28912354 64.86650085 2.000000 2.000000
-36.77959824 -808.10412598 88.08280182 2.000000 2.000000
-78.44730377 -791.08410645 90.37329865 2.000000 2.000000
-65.14530182 -828.65600586 69.66500092 2.000000 2.000000
-18.54850006 -815.70477295 76.03759766 2.000000 2.000000
-84.76969910 -796.50012207 86.37290192 2.000000 2.000000
-17.28720093 -843.80059814 48.27019882 2.000000 2.000000
-82.25309753 -785.53961182 90.58910370 2.000000 2.000000
-41.90959930 -847.54107666 47.66989899 2.000000 2.000000
-22.33259964 -749.01678467 50.07089996 2.000000 2.000000
-110.00029755 -789.40087891 78.17070007 2.000000 2.000000
-63.05550003 -779.09460449 95.06739807 2.000000 2.000000
-56.71200180 -837.25061035 65.35279846 2.000000 2.000000
-23.15099907 -816.21392822 79.36129761 2.000000 2.000000
-142.95790100 -785.13757324 69.32119751 2.000000 2.000000
-45.76119995 -792.18371582 88.30319977 2.000000 2.000000
-59.19139862 -831.36090088 70.28919983 2.000000 2.000000
-79.15820313 -799.71221924 87.04119873 2.000000 2.000000
-26.56730080 -813.76678467 82.52079773 2.000000 2.000000
-143.81610107 -759.11761475 87.11660004 2.000000 2.000000
-67.60060120 -771.60321045 68.70040131 1.000000 1.000000
-28.56620026 -832.84558105 66.11759949 2.000000 2.000000
-32.55189896 -847.00231934 47.33800125 2.000000 2.000000
-133.24380493 -780.51812744 76.80639648 2.000000 2.000000
-92.39739990 -775.93750000 79.62699890 1.000000 1.000000
-61.93539810 -828.82202148 71.56479645 2.000000 2.000000
-22.65200043 -819.83367920 77.61840057 2.000000 2.000000
-28.38649940 -853.79907227 28.17900085 2.000000 2.000000
-71.22339630 -830.71008301 60.54869843 2.000000 2.000000
-135.37959290 -769.92102051 82.61470032 2.000000 2.000000
-41.90060043 -852.94689941 38.98619843 2.000000 2.000000
-18.68350029 -852.08361816 39.77109909 2.000000 2.000000
-23.35420036 -844.53649902 49.96760178 2.000000 2.000000
-50.96820068 -851.24810791 35.62990189 2.000000 2.000000
-52.25830078 -832.79272461 72.33820343 2.000000 2.000000
-64.43740082 -806.50402832 83.02400208 2.000000 2.000000
-115.30709839 -792.20477295 76.20690155 2.000000 2.000000
-113.33699799 -795.53839111 73.05259705 2.000000 2.000000
-74.13159943 -792.34667969 90.23829651 2.000000 2.000000
-117.71019745 -746.43890381 88.90850067 2.000000 2.000000
-47.17210007 -810.34710693 79.86399841 1.000000 1.000000
-52.76919937 -837.13391113 67.68659973 2.000000 2.000000
-30.97170067 -816.10192871 82.27030182 2.000000 2.000000
-61.56829834 -770.39971924 61.87540054 1.000000 1.000000
-28.48550034 -751.26000977 48.24060059 2.000000 2.000000
-26.38139915 -843.45812988 53.08300018 2.000000 2.000000
-47.58729935 -808.96087646 80.08000183 1.000000 1.000000
-145.94419861 -773.49072266 74.11869812 2.000000 2.000000
-57.80759811 -806.10510254 84.03189850 2.000000 2.000000
-107.59670258 -784.33581543 81.91059875 2.000000 2.000000
-133.20989990 -770.01910400 84.53070068 2.000000 2.000000
-159.37409973 -769.41229248 66.65550232 2.000000 2.000000
-16.33009911 -837.02862549 56.96009827 2.000000 2.000000
-40.59859848 -825.37762451 71.56030273 1.000000 1.000000
-30.80540085 -813.94958496 83.87200165 2.000000 2.000000
-108.31109619 -803.20477295 63.88579941 2.000000 2.000000
-152.06100464 -773.91320801 68.96219635 2.000000 2.000000
-141.11279297 -793.44488525 68.25930023 2.000000 2.000000
-30.18869972 -853.31707764 30.25390053 2.000000 2.000000
-50.36719894 -850.62872314 37.44440079 2.000000 2.000000
-76.39669800 -800.10571289 88.88659668 2.000000 2.000000
-31.01720047 -816.71087646 82.17600250 2.000000 2.000000
-83.62439728 -788.98797607 88.95749664 2.000000 2.000000
-17.79010010 -844.95147705 46.28969955 2.000000 2.000000
-32.06930161 -808.44396973 87.20950317 2.000000 2.000000
-69.25319672 -793.61138916 91.13200378 2.000000 2.000000
-31.53949928 -825.73651123 81.07890320 2.000000 2.000000
-141.42550659 -792.15600586 68.10579681 2.000000 2.000000
-9.72929955 -843.96728516 46.37789917 2.000000 2.000000
-28.74810028 -809.82373047 84.92690277 2.000000 2.000000
-138.34590149 -773.59790039 78.06009674 2.000000 2.000000
-155.74749756 -782.49737549 62.94699860 2.000000 2.000000
-41.71160126 -839.76177979 59.22040176 2.000000 2.000000
-15.66030025 -854.35241699 35.88980103 2.000000 2.000000
-125.98079681 -739.31677246 83.67720032 2.000000 2.000000
-78.03299713 -789.55462646 90.65769958 2.000000 2.000000
-111.32160187 -762.56011963 91.23500061 2.000000 2.000000
-62.47340012 -813.08868408 79.96510315 2.000000 2.000000
-73.37629700 -793.21636963 90.34510040 2.000000 2.000000
-63.66320038 -798.83020020 88.87570190 2.000000 2.000000
-104.37539673 -792.42492676 76.08090210 2.000000 2.000000
-150.32380676 -754.60491943 83.35620117 2.000000 2.000000
-25.04459953 -844.82751465 50.97000122 2.000000 2.000000
-94.17289734 -798.74072266 79.00090027 2.000000 2.000000
-14.51679993 -838.39001465 55.25669861 2.000000 2.000000
-119.38400269 -785.35650635 81.20739746 2.000000 2.000000
-102.76879883 -764.11602783 91.42790222 2.000000 2.000000
-58.37200165 -771.41259766 61.64979935 1.000000 1.000000
-135.73970032 -784.03961182 73.97959900 2.000000 2.000000
-112.93280029 -752.11132813 91.53209686 2.000000 2.000000
-41.36000061 -848.53991699 46.33769989 2.000000 2.000000
-31.79409981 -829.84411621 68.83920288 2.000000 2.000000
-56.46049881 -821.22979736 80.99909973 2.000000 2.000000
-63.83560181 -788.63098145 89.98660278 2.000000 2.000000
-11.38280010 -845.18957520 44.17050171 2.000000 2.000000
-129.35890198 -783.20977783 77.68209839 2.000000 2.000000
-32.39540100 -824.10632324 81.63430023 2.000000 2.000000
-52.98310089 -822.39617920 80.85099792 2.000000 2.000000
-9.93640041 -843.64459229 46.97869873 2.000000 2.000000
-69.41059875 -808.57769775 78.00489807 2.000000 2.000000
-124.38369751 -766.29681396 89.28959656 2.000000 2.000000
-74.01789856 -794.15142822 90.10910034 2.000000 2.000000
-14.97739983 -854.55432129 35.44969940 2.000000 2.000000
-30.47360039 -752.95782471 46.64920044 2.000000 2.000000
-48.72869873 -849.27148438 41.55739975 2.000000 2.000000
-84.87409973 -800.19830322 84.48799896 2.000000 2.000000
-77.51959991 -772.99908447 75.11160278 1.000000 1.000000
-39.32210159 -803.25811768 88.52929688 2.000000 2.000000
-117.81809998 -793.38146973 75.04850006 2.000000 2.000000
-90.66680145 -776.32641602 81.63159943 1.000000 1.000000
-64.05860138 -830.00622559 69.06649780 2.000000 2.000000
-22.79159927 -852.00012207 32.33670044 2.000000 2.000000
-77.19909668 -795.74902344 89.52639771 2.000000 2.000000
-172.08099365 -774.51287842 54.51890182 2.000000 2.000000
-34.35639954 -822.83050537 82.55719757 2.000000 2.000000
-60.85449982 -822.54187012 79.06590271 2.000000 2.000000
-77.64769745 -786.24731445 90.79380035 2.000000 2.000000
-119.14369965 -809.00592041 54.64250183 2.000000 2.000000
-117.72399902 -806.31640625 58.96170044 2.000000 2.000000
-83.41369629 -796.04217529 87.03910065 2.000000 2.000000
-62.30239868 -780.13397217 73.72820282 1.000000 1.000000
-43.54669952 -794.91497803 86.70790100 2.000000 2.000000
-119.14459991 -795.74798584 72.94480133 2.000000 2.000000
-21.20890045 -821.05932617 75.89880371 2.000000 2.000000
-32.08089828 -814.61907959 83.67579651 2.000000 2.000000
-76.72200012 -788.81329346 90.60350037 2.000000 2.000000
-58.18330002 -769.94201660 61.39189911 1.000000 1.000000
-17.94499969 -847.23278809 43.63069916 2.000000 2.000000
-62.26169968 -838.45831299 59.38119888 2.000000 2.000000
-49.78929901 -747.52130127 17.91080093 1.000000 1.000000
-98.14080048 -774.90039063 80.44049835 1.000000 1.000000
-131.39239502 -775.84680176 79.99459839 2.000000 2.000000
-56.73109818 -761.06152344 45.06029892 1.000000 1.000000
-122.83679962 -748.28411865 89.80079651 2.000000 2.000000
-50.39179993 -796.78778076 81.06890106 1.000000 1.000000
-32.32740021 -830.14031982 69.00969696 2.000000 2.000000
-61.27289963 -784.92968750 81.62960052 1.000000 1.000000
-116.21980286 -785.21667480 81.15119934 2.000000 2.000000
-17.00020027 -841.02288818 52.18339920 2.000000 2.000000
-37.20289993 -753.38470459 41.90760040 1.000000 1.000000
-32.74969864 -848.18707275 44.79859924 2.000000 2.000000
-26.44729996 -819.49652100 80.27519989 2.000000 2.000000
-50.38040161 -820.08081055 81.56089783 2.000000 2.000000
-76.65609741 -785.50048828 91.16519928 2.000000 2.000000
-135.84179688 -779.08227539 76.01840210 2.000000 2.000000
-116.58799744 -809.31671143 54.23889923 2.000000 2.000000
-132.69450378 -782.43072510 76.38009644 2.000000 2.000000
-88.58820343 -798.41491699 83.52539825 2.000000 2.000000
-147.01570129 -775.97680664 71.46489716 2.000000 2.000000
-85.60209656 -801.03002930 83.59120178 2.000000 2.000000
-155.78289795 -792.11022949 60.95709991 2.000000 2.000000
-35.54919815 -850.58538818 39.01449966 2.000000 2.000000
-17.28490067 -819.67279053 73.33740234 2.000000 2.000000
-142.04960632 -777.84252930 73.41829681 2.000000 2.000000
-72.21700287 -793.43762207 89.78350067 2.000000 2.000000
-47.07619858 -797.67327881 84.77649689 2.000000 2.000000
-153.63969421 -786.20361328 64.07569885 2.000000 2.000000
-56.34460068 -822.85302734 80.75440216 2.000000 2.000000
-44.71730042 -848.59301758 45.33179855 2.000000 2.000000
-44.86539841 -793.11962891 87.36019897 2.000000 2.000000
-45.94380188 -852.19561768 38.72499847 2.000000 2.000000
-119.36589813 -774.26947021 88.85119629 2.000000 2.000000
-32.02470016 -815.43939209 82.91020203 2.000000 2.000000
-66.23650360 -794.14318848 91.10340118 2.000000 2.000000
-46.38190079 -808.41760254 80.05229950 1.000000 1.000000
-57.42340088 -838.25781250 63.29809952 2.000000 2.000000
-84.90589905 -795.95361328 86.23580170 2.000000 2.000000
-72.92549896 -798.71557617 88.99839783 2.000000 2.000000
-70.95079803 -835.68292236 53.71160126 2.000000 2.000000
-55.51979828 -761.34277344 45.90470123 1.000000 1.000000
-59.26399994 -767.66552734 58.62039948 1.000000 1.000000
-121.06960297 -791.56311035 76.72579956 2.000000 2.000000
-52.50030136 -793.92608643 78.99780273 1.000000 1.000000
-41.03720093 -822.80297852 80.64389801 2.000000 2.000000
-58.38750076 -837.69091797 63.08259964 2.000000 2.000000
-17.22200012 -836.66168213 57.32609940 2.000000 2.000000
-166.80459595 -780.49121094 55.25960159 2.000000 2.000000
-34.62060165 -832.87567139 67.48840332 2.000000 2.000000
-15.72299957 -845.75378418 44.45920181 2.000000 2.000000
-151.55799866 -760.25457764 79.41130066 2.000000 2.000000
-60.99069977 -839.04370117 59.37300110 2.000000 2.000000
-15.71930027 -847.13391113 42.87030029 2.000000 2.000000
-62.43679810 -793.70239258 88.25830078 2.000000 2.000000
-169.14970398 -771.32379150 58.02420044 2.000000 2.000000
-123.40579987 -745.29760742 89.11799622 2.000000 2.000000
-64.45059967 -840.85906982 53.04869843 2.000000 2.000000
-120.79219818 -787.60211182 79.58999634 2.000000 2.000000
-63.22190094 -761.28497314 35.28160095 1.000000 1.000000
-55.30329895 -809.23510742 83.70850372 2.000000 2.000000
-21.03330040 -824.33972168 75.40190125 2.000000 2.000000
-53.80410004 -760.03100586 42.17190170 1.000000 1.000000
-151.43769836 -758.86602783 80.25469971 2.000000 2.000000
-29.99889946 -844.81329346 52.94729996 2.000000 2.000000
-32.03359985 -822.69989014 81.95709991 2.000000 2.000000
-81.80549622 -792.25042725 89.03479767 2.000000 2.000000
-11.40089989 -840.21441650 53.41370010 2.000000 2.000000
-23.32329941 -818.10491943 78.59940338 2.000000 2.000000
-119.51439667 -777.26550293 81.78929901 1.000000 1.000000
-131.79020691 -778.46881104 78.06009674 2.000000 2.000000
-142.15029907 -765.65710449 82.17739868 2.000000 2.000000
-108.94159698 -757.16180420 91.85749817 2.000000 2.000000
-28.39089966 -838.60388184 58.58689880 2.000000 2.000000
-79.06970215 -800.01519775 86.91380310 2.000000 2.000000
-32.40359879 -811.44439697 85.46330261 2.000000 2.000000
-57.69789886 -826.02471924 76.55159760 2.000000 2.000000
-67.38289642 -831.94439697 63.13830185 2.000000 2.000000
-84.19329834 -793.04571533 87.88259888 2.000000 2.000000
-79.07369995 -795.56542969 88.78050232 2.000000 2.000000
-51.11959839 -796.55230713 80.05319977 1.000000 1.000000
-23.66620064 -809.15307617 82.76740265 2.000000 2.000000
-115.61109924 -760.90551758 90.89669800 2.000000 2.000000
-116.56580353 -783.13970947 82.70700073 2.000000 2.000000
-109.27739716 -797.53442383 71.30629730 2.000000 2.000000
-121.66490173 -786.62579346 80.65219879 2.000000 2.000000
-63.55160141 -805.45001221 84.14289856 2.000000 2.000000
-170.57359314 -772.84637451 56.34600067 2.000000 2.000000
-23.92620087 -841.29229736 53.86890030 2.000000 2.000000
-50.84019852 -787.91632080 89.11440277 2.000000 2.000000
-154.45829773 -769.11230469 70.79900360 2.000000 2.000000
-37.99750137 -845.38458252 51.10269928 2.000000 2.000000
-126.27519989 -799.53552246 67.73470306 2.000000 2.000000
-107.52780151 -769.99432373 89.54209900 2.000000 2.000000
-13.41129971 -848.37927246 40.13510132 2.000000 2.000000
-81.51429749 -800.80987549 85.54180145 2.000000 2.000000
-20.81329918 -753.51348877 48.67150116 2.000000 2.000000
-61.12260056 -837.78662109 61.15650177 2.000000 2.000000
-119.77649689 -799.84747314 68.38639832 2.000000 2.000000
-101.96530151 -791.90307617 76.94689941 2.000000 2.000000
-16.08320045 -844.85351563 45.82490158 2.000000 2.000000
-110.21289825 -757.45477295 91.75930023 2.000000 2.000000
-22.88689995 -750.08990479 49.76319885 2.000000 2.000000
-47.95980072 -854.39978027 25.99390030 2.000000 2.000000
-117.24770355 -773.79779053 88.66840363 2.000000 2.000000
-106.78070068 -806.36041260 58.30339813 2.000000 2.000000
-21.57320023 -754.87988281 47.56800079 2.000000 2.000000
-119.84750366 -760.61822510 90.53309631 2.000000 2.000000
-33.07070160 -843.31298828 53.41500092 2.000000 2.000000
-27.90769958 -853.80999756 28.08449936 2.000000 2.000000
-108.43530273 -777.18627930 82.66989899 1.000000 1.000000
-113.24780273 -787.75427246 79.01129913 2.000000 2.000000
-39.14139938 -789.06079102 89.67259979 2.000000 2.000000
-60.77059937 -774.94757080 68.15180206 1.000000 1.000000
-51.80170059 -838.07049561 67.43170166 2.000000 2.000000
-48.13740158 -807.72741699 80.10009766 1.000000 1.000000
-38.11669922 -823.59088135 80.72149658 2.000000 2.000000
-63.05820084 -825.28167725 75.44699860 2.000000 2.000000
-86.08509827 -796.19177246 85.73919678 2.000000 2.000000
-119.97100067 -774.22540283 88.97370148 2.000000 2.000000
-37.62689972 -813.10852051 84.93879700 2.000000 2.000000
-107.91719818 -790.52117920 77.45989990 2.000000 2.000000
-135.68949890 -781.80548096 74.85009766 2.000000 2.000000
-64.79509735 -808.87310791 80.82980347 2.000000 2.000000
-67.54319763 -789.78308105 89.59279633 2.000000 2.000000
-50.74959946 -846.12609863 45.47909927 2.000000 2.000000
-55.32500076 -822.63439941 80.52690125 2.000000 2.000000
-141.90330505 -781.80908203 71.08550262 2.000000 2.000000
-60.41170120 -833.24621582 67.45120239 2.000000 2.000000
-67.24079895 -787.65728760 88.16329956 2.000000 2.000000
-31.81909943 -815.43841553 82.71980286 2.000000 2.000000
-111.68360138 -798.16577148 70.48069763 2.000000 2.000000
-114.64019775 -805.44042969 60.44929886 2.000000 2.000000
-45.42060089 -840.21008301 59.91970062 2.000000 2.000000
-19.07329941 -840.46179199 53.62969971 2.000000 2.000000
-163.66180420 -775.07409668 59.46400070 2.000000 2.000000
-19.80159950 -752.27331543 49.39659882 2.000000 2.000000
-22.15600014 -806.32147217 82.87460327 2.000000 2.000000
-62.71500015 -760.10021973 34.19979858 1.000000 1.000000
-12.84309959 -847.65588379 41.05820084 2.000000 2.000000
-48.09930038 -807.65417480 80.13349915 1.000000 1.000000
-119.74770355 -767.70611572 89.52069855 2.000000 2.000000
-41.62839890 -822.98919678 74.30439758 1.000000 1.000000
-66.29049683 -793.28869629 90.96880341 2.000000 2.000000
-27.58160019 -807.81347656 85.57620239 2.000000 2.000000
-38.35649872 -839.55877686 58.84680176 2.000000 2.000000
-49.93099976 -852.60437012 34.60279846 2.000000 2.000000
-21.62719917 -837.63647461 57.94070053 2.000000 2.000000
-107.93509674 -760.23022461 91.42070007 2.000000 2.000000
-79.55940247 -788.35089111 90.36849976 2.000000 2.000000
-58.74750137 -811.35906982 82.27480316 2.000000 2.000000
-49.33079910 -835.86102295 71.38110352 2.000000 2.000000
-171.44549561 -777.16052246 53.57640076 2.000000 2.000000
-115.40699768 -757.39898682 91.27200317 2.000000 2.000000
-48.98389816 -798.34991455 83.60579681 2.000000 2.000000
-36.96780014 -840.26428223 57.55469894 2.000000 2.000000
-57.52450180 -823.14062500 79.36109924 2.000000 2.000000
-63.70769882 -778.79431152 95.17810059 2.000000 2.000000
-44.84379959 -854.73162842 33.32880020 2.000000 2.000000
-147.26330566 -789.81097412 65.85109711 2.000000 2.000000
-121.26049805 -752.44702148 90.54380035 2.000000 2.000000
-149.43029785 -788.58270264 64.82610321 2.000000 2.000000
-11.13829994 -751.37268066 53.05300140 2.000000 2.000000
-75.38059998 -772.95452881 74.45749664 1.000000 1.000000
-51.23410034 -833.89587402 71.73780060 2.000000 2.000000
-113.06269836 -765.17877197 90.64060211 2.000000 2.000000
-13.84819984 -848.98919678 39.22240067 2.000000 2.000000
-19.55310059 -823.63452148 74.48210144 2.000000 2.000000
-69.40229797 -840.21362305 46.00780106 2.000000 2.000000
-41.83670044 -851.29388428 41.83879852 2.000000 2.000000
-23.19319916 -813.36151123 80.66929626 2.000000 2.000000
-105.88330078 -806.28991699 58.73479843 2.000000 2.000000
-22.25869942 -835.67382813 60.50650024 2.000000 2.000000
-76.60510254 -790.04467773 90.64949799 2.000000 2.000000
-63.70240021 -793.77917480 89.06439972 2.000000 2.000000
-28.57279968 -857.38610840 18.68460083 2.000000 2.000000
-18.70289993 -835.44982910 59.99470139 2.000000 2.000000
-107.45659637 -771.77362061 88.71949768 2.000000 2.000000
-59.65150070 -829.55859375 71.97380066 2.000000 2.000000
-70.27989960 -798.88488770 90.37989807 2.000000 2.000000
-59.32149887 -766.35107422 54.99420166 1.000000 1.000000
-114.78839874 -784.03247070 81.67369843 2.000000 2.000000
-45.55979919 -842.71417236 54.27619934 2.000000 2.000000
-66.05229950 -789.47888184 89.42900085 2.000000 2.000000
-52.69860077 -753.96820068 31.15279961 1.000000 1.000000
-134.75180054 -775.60040283 78.81089783 2.000000 2.000000
-71.28569794 -807.17071533 77.08380127 2.000000 2.000000
-39.95029831 -844.87719727 52.15840149 2.000000 2.000000
-117.07469940 -809.04168701 54.75339890 2.000000 2.000000
-8.65120029 -813.46057129 66.90529633 2.000000 2.000000
-128.31230164 -751.71368408 88.79389954 2.000000 2.000000
-169.19689941 -775.93768311 55.28630066 2.000000 2.000000
-126.88999939 -762.40008545 89.39949799 2.000000 2.000000
-111.71289825 -806.86798096 56.68970108 2.000000 2.000000
-36.24940109 -753.36608887 43.11510086 1.000000 1.000000
-69.45729828 -838.74908447 50.55110168 2.000000 2.000000
-139.19979858 -786.08911133 71.16970062 2.000000 2.000000
-95.06169891 -775.85339355 80.82679749 1.000000 1.000000
-69.07810211 -835.76708984 56.08629990 2.000000 2.000000
-82.94940186 -797.52130127 86.87139893 2.000000 2.000000
-50.74779892 -851.32031250 35.76679993 2.000000 2.000000
-58.72800064 -772.80072021 65.59829712 1.000000 1.000000
-64.00509644 -785.04437256 84.75270081 1.000000 1.000000
-62.06669998 -776.91967773 67.40110016 1.000000 1.000000
-149.30209351 -779.58172607 68.15149689 2.000000 2.000000
-51.37390137 -828.77581787 75.36160278 2.000000 2.000000
-32.58489990 -816.13067627 82.51730347 2.000000 2.000000
-57.17829895 -803.39410400 86.20420074 2.000000 2.000000
-158.07969666 -768.85107422 68.71769714 2.000000 2.000000
-54.14960098 -834.56188965 69.81159973 2.000000 2.000000
-28.18689919 -843.82891846 53.52849960 2.000000 2.000000
-59.09289932 -773.12799072 67.09169769 1.000000 1.000000
-52.23970032 -750.05017090 18.09609985 1.000000 1.000000
-42.43119812 -844.62457275 52.49480057 2.000000 2.000000
-155.52870178 -797.04351807 60.38930130 2.000000 2.000000
-84.88629913 -797.55212402 85.94920349 2.000000 2.000000
-59.03710175 -818.23309326 81.85070038 2.000000 2.000000
-67.41729736 -772.69250488 70.48400116 1.000000 1.000000
-58.01539993 -806.74298096 83.16860199 2.000000 2.000000
-109.23059845 -750.33801270 91.87870026 2.000000 2.000000
-33.16429901 -830.44873047 69.28389740 2.000000 2.000000
-58.90200043 -822.81018066 79.48229980 2.000000 2.000000
-139.56399536 -781.33642578 72.93309784 2.000000 2.000000
-146.82429504 -757.86437988 84.71790314 2.000000 2.000000
-146.56979370 -788.39410400 66.87840271 2.000000 2.000000
-140.49299622 -778.04260254 74.27549744 2.000000 2.000000
-109.62449646 -752.27941895 91.71109772 2.000000 2.000000
-123.92099762 -747.34790039 89.61289978 2.000000 2.000000
-33.69079971 -835.22222900 63.32350159 2.000000 2.000000
-85.57319641 -796.87670898 85.76869965 2.000000 2.000000
-82.41899872 -786.38781738 90.21219635 2.000000 2.000000
-46.01679993 -852.11352539 38.89070129 2.000000 2.000000
-47.97669983 -849.98461914 41.13639832 2.000000 2.000000
-29.55450058 -751.65509033 47.66139984 2.000000 2.000000
-58.99269867 -810.61102295 82.57260132 2.000000 2.000000
-28.87809944 -842.95477295 54.41189957 2.000000 2.000000
-154.48820496 -782.95281982 63.46179962 2.000000 2.000000
-81.43679810 -800.69067383 85.61309814 2.000000 2.000000
-32.46749878 -848.14630127 44.95259857 2.000000 2.000000
-71.66580200 -826.96582031 68.33409882 2.000000 2.000000
-125.56199646 -778.82788086 80.08959961 2.000000 2.000000
-27.36569977 -831.75646973 66.63809967 2.000000 2.000000
-5.90320015 -754.13427734 54.95180130 2.000000 2.000000
-26.79459953 -845.85217285 51.01319885 2.000000 2.000000
-70.56700134 -834.02661133 56.33869934 2.000000 2.000000
-9.56229973 -845.07452393 45.22269821 2.000000 2.000000
-117.09989929 -807.64318848 57.06110001 2.000000 2.000000
-32.26350021 -751.40087891 46.73049927 2.000000 2.000000
-14.99520016 -839.87542725 53.01990128 2.000000 2.000000
-22.65080070 -756.98358154 46.18880081 2.000000 2.000000
-91.57240295 -800.34399414 79.90309906 2.000000 2.000000
-57.38029861 -832.07458496 70.59349823 2.000000 2.000000
-16.73069954 -843.53259277 48.20940018 2.000000 2.000000
-107.48149872 -789.74957275 78.15450287 2.000000 2.000000
-15.58600044 -818.08081055 72.21589661 2.000000 2.000000
-112.01719666 -749.97491455 91.65350342 2.000000 2.000000
-98.11309814 -774.92401123 80.85350037 1.000000 1.000000
-38.79460144 -810.06842041 87.10009766 2.000000 2.000000
-66.80549622 -810.66882324 78.27570343 2.000000 2.000000
-31.18169975 -849.99932861 39.98229980 2.000000 2.000000
-35.08250046 -831.83862305 68.44239807 2.000000 2.000000
-30.12750053 -827.10577393 79.93900299 2.000000 2.000000
-107.42990112 -798.29888916 70.24030304 2.000000 2.000000
-20.33629990 -850.45068359 41.31909943 2.000000 2.000000
-55.42979813 -818.41088867 82.81549835 2.000000 2.000000
-41.90420151 -819.06872559 81.97769928 2.000000 2.000000
-84.44830322 -795.42840576 86.68360138 2.000000 2.000000
-19.39850044 -852.94488525 38.80749893 2.000000 2.000000
-61.69200134 -823.64392090 77.75090027 2.000000 2.000000
-74.10189819 -787.08300781 91.07319641 2.000000 2.000000
-84.52880096 -790.82159424 88.24009705 2.000000 2.000000
-107.17340088 -801.67156982 65.80989838 2.000000 2.000000
-41.48989868 -791.89697266 88.82730103 2.000000 2.000000
-61.86679840 -779.21862793 94.88999939 2.000000 2.000000
-139.98649597 -769.30828857 80.73429871 2.000000 2.000000
-54.30179977 -848.30291748 37.63209915 2.000000 2.000000
-36.47700119 -812.75128174 85.19219971 2.000000 2.000000
-57.94070053 -784.41082764 84.97830200 1.000000 1.000000
-44.10979843 -853.54901123 37.27750015 2.000000 2.000000
-122.78849792 -759.55340576 90.33280182 2.000000 2.000000
-136.21719360 -776.13500977 77.65329742 2.000000 2.000000
-13.73929977 -749.43579102 52.83879852 2.000000 2.000000
-29.48940086 -829.86627197 68.56130219 2.000000 2.000000
-42.76380157 -813.55889893 83.96829987 2.000000 2.000000
-44.24520111 -849.93182373 42.87509918 2.000000 2.000000
-37.04629898 -804.39752197 89.00250244 2.000000 2.000000
-60.77339935 -806.10961914 84.14520264 2.000000 2.000000
-145.33020020 -768.53912354 77.86070251 2.000000 2.000000
-118.03869629 -794.70251465 73.77269745 2.000000 2.000000
-158.21730042 -769.10168457 67.79560089 2.000000 2.000000
-38.68809891 -786.87591553 89.90899658 2.000000 2.000000
-151.42889404 -758.08648682 80.61969757 2.000000 2.000000
-67.80549622 -835.19421387 58.40779877 2.000000 2.000000
-51.53549957 -850.76861572 35.91740036 2.000000 2.000000
-73.02429962 -767.89508057 40.92179871 2.000000 2.000000
-44.55630112 -740.92767334 1.10119998 1.000000 1.000000
-55.70339966 -788.15270996 76.57969666 1.000000 1.000000
-60.80659866 -776.41491699 68.74199677 1.000000 1.000000
-37.46009827 -805.24798584 88.58029938 2.000000 2.000000
-23.64929962 -851.78332520 32.93880081 2.000000 2.000000
-39.51810074 -835.10992432 65.13279724 2.000000 2.000000
-43.23759842 -819.89758301 76.42800140 1.000000 1.000000
-63.46720123 -786.99682617 86.85970306 2.000000 2.000000
-52.88930130 -822.70477295 80.68710327 2.000000 2.000000
-57.17969894 -826.34338379 76.35060120 2.000000 2.000000
-166.74670410 -776.29992676 56.55950165 2.000000 2.000000
-27.18429947 -807.49627686 85.88809967 2.000000 2.000000
-57.10549927 -809.95458984 83.01450348 2.000000 2.000000
-151.89570618 -780.28338623 65.77059937 2.000000 2.000000
-49.26480103 -822.45678711 78.92559814 2.000000 2.000000
-47.31940079 -842.74237061 53.64379883 2.000000 2.000000
-52.43190002 -751.53540039 19.91430092 1.000000 1.000000
-27.67630005 -842.61877441 54.29779816 2.000000 2.000000
-68.05460358 -811.90118408 76.68180084 2.000000 2.000000
-156.87539673 -789.54571533 61.75930023 2.000000 2.000000
-61.11869812 -780.26940918 76.04000092 1.000000 1.000000
-51.09120178 -752.50921631 20.77289963 1.000000 1.000000
-35.20669937 -834.79852295 63.60449982 2.000000 2.000000
-106.21589661 -790.73529053 77.42559814 2.000000 2.000000
-44.41289902 -813.24432373 84.63539886 2.000000 2.000000
-106.63849640 -800.81896973 67.35790253 2.000000 2.000000
-40.03269958 -790.91827393 88.83260345 2.000000 2.000000
-35.30749893 -855.30657959 28.07320023 2.000000 2.000000
-48.07400131 -795.03637695 86.00700378 2.000000 2.000000
-31.52529907 -752.24108887 46.39609909 2.000000 2.000000
-66.61029816 -829.87811279 67.06790161 2.000000 2.000000
-140.65589905 -763.09082031 84.79930115 2.000000 2.000000
-14.51780033 -844.64807129 45.54899979 2.000000 2.000000
-25.03450012 -847.01922607 48.95000076 2.000000 2.000000
-19.55480003 -845.44177246 46.58409882 2.000000 2.000000
-137.19659424 -777.03869629 76.67019653 2.000000 2.000000
-59.10710144 -758.22607422 30.03590012 1.000000 1.000000
-159.21940613 -768.39581299 67.97899628 2.000000 2.000000
-11.79959965 -849.75231934 37.62590027 2.000000 2.000000
-121.68280029 -793.39837646 75.28130341 2.000000 2.000000
-54.93780136 -821.25341797 81.35769653 2.000000 2.000000
-91.66889954 -796.99908447 81.97859955 2.000000 2.000000
-12.03269958 -754.50677490 51.46289825 2.000000 2.000000
-83.81269836 -799.56231689 85.33799744 2.000000 2.000000
-23.29520035 -853.41027832 28.90500069 2.000000 2.000000
-108.07790375 -771.58410645 88.75189972 2.000000 2.000000
-81.83219910 -800.29290771 85.73580170 2.000000 2.000000
-111.05000305 -777.15362549 82.78320313 1.000000 1.000000
-51.74319839 -827.10571289 76.02660370 2.000000 2.000000
-133.59489441 -784.87268066 74.86519623 2.000000 2.000000
-73.68019867 -791.25787354 89.56379700 2.000000 2.000000
-85.52220154 -797.92407227 85.39140320 2.000000 2.000000
-117.59989929 -748.81018066 90.16000366 2.000000 2.000000
-60.38499832 -784.07147217 90.29290009 2.000000 2.000000
-173.25880432 -775.53472900 53.89749908 2.000000 2.000000
-28.65390015 -806.82977295 86.94570160 2.000000 2.000000
-62.16749954 -830.73748779 69.20149994 2.000000 2.000000
-67.79280090 -822.86907959 75.21109772 2.000000 2.000000
-21.66379929 -818.20690918 77.69219971 2.000000 2.000000
-46.49589920 -753.83227539 32.41820145 1.000000 1.000000
-165.44169617 -770.33441162 61.07189941 2.000000 2.000000
-24.43770027 -835.05578613 62.44839859 2.000000 2.000000
-41.83789825 -847.81701660 47.14630127 2.000000 2.000000
-150.81579590 -758.35479736 81.83989716 2.000000 2.000000
-13.73649979 -839.56182861 53.32469940 2.000000 2.000000
-126.13369751 -777.73028564 80.41809845 2.000000 2.000000
-16.89489937 -814.37982178 75.05799866 2.000000 2.000000
-166.74380493 -772.65948486 58.22079849 2.000000 2.000000
-145.02299500 -788.03601074 67.74169922 2.000000 2.000000
-15.44239998 -848.90417480 40.65510178 2.000000 2.000000
-34.13830185 -810.81182861 86.74739838 2.000000 2.000000
-123.59690094 -738.51947021 83.62699890 2.000000 2.000000
-32.96310043 -847.04882813 47.02479935 2.000000 2.000000
-64.45050049 -784.60461426 91.50430298 2.000000 2.000000
-15.85750008 -846.16357422 43.86600113 2.000000 2.000000
-89.05829620 -774.55877686 40.18199921 2.000000 2.000000
-140.18730164 -779.48449707 73.88469696 2.000000 2.000000
-44.24039841 -849.73577881 43.23249817 2.000000 2.000000
-50.61149979 -843.14068604 51.26860046 2.000000 2.000000
-106.47229767 -800.31811523 68.10900116 2.000000 2.000000
-22.00869942 -856.43408203 20.63979912 2.000000 2.000000
-41.11610031 -821.79852295 81.40959930 2.000000 2.000000
-68.12020111 -771.85638428 70.82180023 1.000000 1.000000
-105.38760376 -764.45550537 90.91940308 2.000000 2.000000
-133.09280396 -770.34582520 84.18550110 2.000000 2.000000
-73.01930237 -791.75769043 90.22180176 2.000000 2.000000
-49.80680084 -752.03039551 23.02919960 1.000000 1.000000
-25.84040070 -835.26690674 62.81809998 2.000000 2.000000
-115.67430115 -760.87597656 90.92199707 2.000000 2.000000
-152.56660461 -784.87567139 65.19960022 2.000000 2.000000
-40.30210114 -828.39831543 69.88619995 1.000000 1.000000
-51.69770050 -752.65661621 28.50819969 1.000000 1.000000
-62.15280151 -800.08361816 88.56600189 2.000000 2.000000
-59.51190186 -803.77221680 86.17179871 2.000000 2.000000
-23.64369965 -854.34136963 25.45689964 2.000000 2.000000
-132.19709778 -786.27197266 74.89790344 2.000000 2.000000
-48.63240051 -850.26751709 40.27420044 2.000000 2.000000
-27.05879974 -853.51000977 29.19020081 2.000000 2.000000
-110.31549835 -789.41961670 78.11150360 2.000000 2.000000
-80.40129852 -795.03778076 88.65019989 2.000000 2.000000
-85.86460114 -789.43579102 87.92389679 2.000000 2.000000
-150.71670532 -759.46978760 80.66709900 2.000000 2.000000
-28.16780090 -853.75421143 28.20450020 2.000000 2.000000
-14.55360031 -849.80340576 39.22230148 2.000000 2.000000
-32.37670135 -809.19598389 86.89260101 2.000000 2.000000
-40.73830032 -844.97692871 52.02510071 2.000000 2.000000
-25.43180084 -848.91778564 39.31900024 2.000000 2.000000
-147.20590210 -790.04547119 65.76280212 2.000000 2.000000
-67.22810364 -771.88488770 70.20929718 1.000000 1.000000
-56.67959976 -835.47583008 67.45989990 2.000000 2.000000
-38.63880157 -788.94549561 89.50170135 2.000000 2.000000
-151.30020142 -757.73132324 81.17880249 2.000000 2.000000
-18.04920006 -810.78082275 78.05590057 2.000000 2.000000
-30.72139931 -846.54809570 47.37590027 2.000000 2.000000
-117.38590240 -760.40881348 90.55650330 2.000000 2.000000
-68.75019836 -837.42700195 54.34109879 2.000000 2.000000
-21.43449974 -850.39587402 41.56370163 2.000000 2.000000
-64.46720123 -839.67572021 54.94129944 2.000000 2.000000
-3.01419997 -752.04248047 57.32569885 2.000000 2.000000
-10.74020004 -751.51422119 53.36529922 2.000000 2.000000
-142.34809875 -775.00451660 75.13230133 2.000000 2.000000
-19.08359909 -812.54968262 78.25299835 2.000000 2.000000
-156.33169556 -783.06701660 62.71609879 2.000000 2.000000
-27.98480034 -839.68890381 57.08390045 2.000000 2.000000
-42.52320099 -793.08728027 87.62049866 2.000000 2.000000
-39.58300018 -842.07672119 55.75439835 2.000000 2.000000
-150.11439514 -786.28192139 64.79699707 2.000000 2.000000
-84.17530060 -790.62322998 88.36699677 2.000000 2.000000
-65.25219727 -807.64501953 81.90830231 2.000000 2.000000
-148.62780762 -759.30462646 83.14250183 2.000000 2.000000
-57.01699829 -812.93927002 82.77760315 2.000000 2.000000
-150.32080078 -759.40588379 81.55110168 2.000000 2.000000
-35.99209976 -846.33850098 48.70859909 2.000000 2.000000
-69.94110107 -764.74652100 39.85210037 2.000000 2.000000
-17.42429924 -753.07452393 49.83079910 2.000000 2.000000
-149.98660278 -759.61590576 81.78170013 2.000000 2.000000
-146.91700745 -790.17602539 65.94429779 2.000000 2.000000
-60.57189941 -783.63128662 90.49459839 2.000000 2.000000
-152.23359680 -779.19873047 66.25720215 2.000000 2.000000
-73.33840179 -798.11492920 89.03630066 2.000000 2.000000
-57.37929916 -836.02490234 66.45369720 2.000000 2.000000
-141.35760498 -765.06597900 83.01370239 2.000000 2.000000
-46.10749817 -744.00830078 1.01259995 1.000000 1.000000
-11.20919991 -843.98217773 46.12829971 2.000000 2.000000
-114.77539825 -797.75537109 71.05699921 2.000000 2.000000
-41.16130066 -795.16668701 87.49790192 2.000000 2.000000
-23.05660057 -846.41168213 47.36569977 2.000000 2.000000
-172.34880066 -775.99542236 53.73300171 2.000000 2.000000
-106.68070221 -805.95397949 59.21720123 2.000000 2.000000
-78.55290222 -774.17938232 75.50900269 1.000000 1.000000
-24.69969940 -853.28332520 29.36759949 2.000000 2.000000
-73.18599701 -789.73437500 89.92960358 2.000000 2.000000
-71.46820068 -833.69757080 55.64070129 2.000000 2.000000
-22.12479973 -808.68072510 82.20099640 2.000000 2.000000
-34.37639999 -812.00268555 85.81040192 2.000000 2.000000
-81.73650360 -797.68597412 87.31220245 2.000000 2.000000
-120.79940033 -761.15539551 90.33460236 2.000000 2.000000
-140.40069580 -779.40551758 73.90499878 2.000000 2.000000
-111.58149719 -791.30041504 76.91220093 2.000000 2.000000
-47.41559982 -846.14062500 47.96620178 2.000000 2.000000
-117.91780090 -764.39239502 90.38400269 2.000000 2.000000
-44.04619980 -810.31207275 88.16709900 2.000000 2.000000
-59.79750061 -766.40301514 54.40859985 1.000000 1.000000
-144.96330261 -790.29522705 66.94950104 2.000000 2.000000
-88.44120026 -769.41558838 42.70809937 2.000000 2.000000
-150.05220032 -794.23602295 62.78620148 2.000000 2.000000
-41.90769958 -794.85717773 87.37220001 2.000000 2.000000
-152.57449341 -772.27392578 69.69969940 2.000000 2.000000
-34.44800186 -855.13531494 28.15769958 2.000000 2.000000
-72.38020325 -791.06628418 89.50180054 2.000000 2.000000
-132.23820496 -785.53967285 75.15380096 2.000000 2.000000
-121.10500336 -770.40368652 89.37460327 2.000000 2.000000
-118.14820099 -801.98010254 65.49759674 2.000000 2.000000
-117.97779846 -745.74371338 88.56939697 2.000000 2.000000
-43.12120056 -817.60498047 81.93219757 2.000000 2.000000
-41.65039825 -841.04241943 57.40299988 2.000000 2.000000
-87.64399719 -791.99401855 86.76529694 2.000000 2.000000
-136.40899658 -781.21942139 74.81809998 2.000000 2.000000
-88.87609863 -796.14788818 84.50389862 2.000000 2.000000
-48.46879959 -828.50848389 76.52349854 2.000000 2.000000
-23.77809906 -854.85699463 24.61050034 2.000000 2.000000
-26.28680038 -814.79907227 81.77639771 2.000000 2.000000
-34.66979980 -814.43719482 83.67359924 2.000000 2.000000
-66.92350006 -833.47119141 61.52190018 2.000000 2.000000
-119.93460083 -788.94207764 78.48500061 2.000000 2.000000
-69.41089630 -829.58148193 64.21070099 2.000000 2.000000
-19.51070023 -815.14538574 77.08139801 2.000000 2.000000
-73.84700012 -774.31628418 73.20429993 1.000000 1.000000
-46.55759811 -851.32067871 40.17720032 2.000000 2.000000
-116.66089630 -772.11029053 88.80460358 2.000000 2.000000
-84.83910370 -773.45458984 76.97579956 1.000000 1.000000
-106.74490356 -795.15332031 73.95690155 2.000000 2.000000
-158.74719238 -778.81231689 61.48099899 2.000000 2.000000
-144.77029419 -782.45697021 69.06420135 2.000000 2.000000
-146.55880737 -777.24438477 70.92810059 2.000000 2.000000
-127.08480072 -741.89721680 86.06939697 2.000000 2.000000
-138.99890137 -780.34228516 73.91349792 2.000000 2.000000
-46.88479996 -797.32037354 84.77639771 2.000000 2.000000
-87.91049957 -796.57409668 84.96540070 2.000000 2.000000
-116.41210175 -796.00317383 72.70749664 2.000000 2.000000
-117.87850189 -743.48681641 87.86609650 2.000000 2.000000
-31.21459961 -817.69848633 82.46199799 2.000000 2.000000
-56.57389832 -764.17871094 51.39559937 1.000000 1.000000
-108.27619934 -794.68432617 74.33799744 2.000000 2.000000
-66.11029816 -824.65637207 74.14199829 2.000000 2.000000
-74.75930023 -772.60821533 40.00820160 2.000000 2.000000
-31.45520020 -840.29608154 58.20420074 2.000000 2.000000
-30.96809959 -846.60760498 47.60919952 2.000000 2.000000
-60.66249847 -774.43627930 68.19660187 1.000000 1.000000
-33.21469879 -819.82977295 82.80750275 2.000000 2.000000
-20.31459999 -815.09912109 77.98670197 2.000000 2.000000
-57.84149933 -835.92547607 66.14499664 2.000000 2.000000
-41.51359940 -852.16442871 40.59249878 2.000000 2.000000
-16.19499969 -845.73181152 44.42290115 2.000000 2.000000
-46.80039978 -855.05108643 27.98369980 2.000000 2.000000
-44.93870163 -851.95739746 39.59680176 2.000000 2.000000
-106.98349762 -806.30767822 58.42200089 2.000000 2.000000
-69.44789886 -829.39971924 64.37989807 2.000000 2.000000
-26.56480026 -813.26092529 82.69989777 2.000000 2.000000
-55.28239822 -818.74871826 82.73840332 2.000000 2.000000
-106.72489929 -787.38110352 80.24829865 2.000000 2.000000
-38.51779938 -845.06298828 51.85089874 2.000000 2.000000
-5.91629982 -752.96612549 55.29759979 2.000000 2.000000
-49.22650146 -853.21807861 33.70420074 2.000000 2.000000
-105.97810364 -760.43511963 91.52310181 2.000000 2.000000
-119.17199707 -795.15863037 73.59919739 2.000000 2.000000
-21.94829941 -817.85461426 78.04239655 2.000000 2.000000
-41.54240036 -853.01409912 38.94089890 2.000000 2.000000
-45.15420151 -742.67352295 -1.94690001 1.000000 1.000000
-51.21789932 -796.53497314 82.87290192 2.000000 2.000000
-59.85820007 -783.45922852 91.56600189 2.000000 2.000000
-144.07899475 -766.58941650 80.05960083 2.000000 2.000000
-112.94989777 -799.03387451 69.36250305 2.000000 2.000000
-61.39500046 -812.65069580 80.61029816 2.000000 2.000000
-145.63009644 -761.08917236 83.15789795 2.000000 2.000000
-45.52190018 -843.17907715 53.38550186 2.000000 2.000000
-71.19860077 -834.18511963 54.77890015 2.000000 2.000000
-21.41189957 -816.72491455 77.85859680 2.000000 2.000000
-65.32830048 -781.47857666 93.89720154 2.000000 2.000000
-28.42180061 -809.93328857 84.91169739 2.000000 2.000000
-149.82699585 -773.48132324 70.95829773 2.000000 2.000000
-26.20890045 -839.69097900 56.99179840 2.000000 2.000000
-56.92839813 -782.81390381 74.69850159 1.000000 1.000000
-40.07619858 -841.00042725 57.30160141 2.000000 2.000000
-31.39710045 -825.59020996 80.79889679 2.000000 2.000000
-158.18269348 -783.89221191 62.00730133 2.000000 2.000000
-125.69629669 -760.62640381 89.68959808 2.000000 2.000000
-9.89540005 -845.74377441 44.14699936 2.000000 2.000000
-35.03950119 -843.88079834 52.61930084 2.000000 2.000000
-34.59629822 -834.17822266 64.82759857 2.000000 2.000000
-158.75819397 -775.90362549 62.59989929 2.000000 2.000000
-54.10810089 -830.43072510 73.21569824 2.000000 2.000000
-24.17000008 -843.19488525 51.92860031 2.000000 2.000000
-55.02009964 -785.98681641 83.48179626 2.000000 2.000000
-58.32580185 -805.42761230 84.77660370 2.000000 2.000000
-50.07080078 -843.31768799 59.10390091 2.000000 2.000000
-39.82189941 -803.83679199 89.05960083 2.000000 2.000000
-21.06809998 -852.70239258 30.39920044 2.000000 2.000000
-152.45869446 -780.46588135 65.33750153 2.000000 2.000000
-82.80329895 -784.65771484 90.90550232 2.000000 2.000000
-118.33869934 -743.51287842 87.66130066 2.000000 2.000000
-53.91910172 -758.52728271 33.20800018 1.000000 1.000000
-22.30839920 -839.37261963 56.09949875 2.000000 2.000000
-26.99500084 -856.82397461 19.04750061 2.000000 2.000000
-140.56050110 -774.58911133 76.25869751 2.000000 2.000000
-163.19329834 -780.06671143 57.95090103 2.000000 2.000000
-104.07520294 -773.95629883 88.74970245 2.000000 2.000000
-122.45950317 -796.77001953 72.02189636 2.000000 2.000000
-40.62540054 -825.47552490 72.20880127 1.000000 1.000000
-62.77949905 -807.64068604 82.55740356 2.000000 2.000000
-91.99060059 -797.57452393 81.41560364 2.000000 2.000000
-113.38729858 -771.26147461 88.73480225 2.000000 2.000000
-171.02540588 -777.40991211 53.83610153 2.000000 2.000000
-85.04380035 -773.68682861 77.82579803 1.000000 1.000000
-92.36930084 -799.04748535 80.37680054 2.000000 2.000000
-41.42950058 -791.97509766 88.28970337 2.000000 2.000000
-72.63300323 -791.92022705 89.97229767 2.000000 2.000000
-49.18030167 -843.45367432 51.24010086 2.000000 2.000000
-119.28610229 -784.41052246 81.93150330 2.000000 2.000000
-110.31649780 -784.02868652 81.04759979 2.000000 2.000000
-29.46190071 -852.03277588 33.93199921 2.000000 2.000000
-18.00650024 -837.87982178 56.36019897 2.000000 2.000000
-31.93470001 -816.76782227 82.46880341 2.000000 2.000000
-134.36369324 -776.09692383 78.49970245 2.000000 2.000000
-52.23189926 -754.83648682 25.82309914 1.000000 1.000000
-24.49550056 -842.27001953 53.11330032 2.000000 2.000000
-91.59929657 -800.01550293 80.15190125 2.000000 2.000000
-86.80239868 -790.40032959 87.34700012 2.000000 2.000000
-84.17359924 -788.17657471 88.69519806 2.000000 2.000000
-63.79199982 -799.63641357 88.71119690 2.000000 2.000000
-27.57110023 -853.68988037 28.52339935 2.000000 2.000000
-117.34739685 -807.73742676 57.08729935 2.000000 2.000000
-131.98089600 -783.69909668 76.05940247 2.000000 2.000000
-146.84559631 -762.41748047 81.30799866 2.000000 2.000000
-42.36119843 -840.61560059 58.11109924 2.000000 2.000000
-25.45660019 -849.05603027 39.17940140 2.000000 2.000000
-27.87870026 -831.56018066 67.01219940 2.000000 2.000000
-66.95749664 -832.63348389 62.60250092 2.000000 2.000000
-52.63150024 -796.32781982 79.35449982 1.000000 1.000000
-107.54219818 -771.34381104 88.96209717 2.000000 2.000000
-123.94439697 -756.32769775 90.25330353 2.000000 2.000000
-117.04810333 -809.90118408 51.05609894 2.000000 2.000000
-10.43630028 -844.89398193 45.16659927 2.000000 2.000000
-124.73269653 -800.64318848 67.26090240 2.000000 2.000000
-15.69299984 -839.36401367 54.12900162 2.000000 2.000000
-53.60160065 -789.69152832 76.74690247 1.000000 1.000000
-28.53940010 -846.60491943 50.77320099 2.000000 2.000000
-61.22890091 -782.23217773 78.88929749 1.000000 1.000000
-141.08419800 -766.05957031 82.59839630 2.000000 2.000000
