-86.95719910 -813.47760010 91.10820007 2.000000 2.000000
-125.88950348 -813.79968262 43.79320145 2.000000 2.000000
-59.94729996 -773.31182861 77.58119965 1.000000 1.000000
-46.08879852 -856.82391357 86.09909821 2.000000 2.000000
-50.68370056 -863.36737061 77.20149994 2.000000 2.000000
-154.79890442 -759.62762451 60.09500122 2.000000 2.000000
-157.57629395 -765.15191650 54.70059967 2.000000 2.000000
-159.08210754 -767.16748047 51.69829941 2.000000 2.000000
-133.61590576 -807.51898193 48.70709991 2.000000 2.000000
-37.36920166 -869.84240723 68.60800171 2.000000 2.000000
-22.85330009 -848.86718750 94.27580261 2.000000 2.000000
-92.51719666 -808.26739502 83.59819794 2.000000 2.000000
-14.72560024 -843.67761230 89.51059723 2.000000 2.000000
-41.16469955 -863.96191406 85.20050049 2.000000 2.000000
-75.28959656 -821.37921143 98.60700226 2.000000 2.000000
-23.60689926 -735.25469971 30.81380081 2.000000 2.000000
-134.07279968 -787.93951416 71.22609711 2.000000 2.000000
-74.59249878 -820.10290527 100.67240143 2.000000 2.000000
-117.44149780 -809.28662109 56.77899933 2.000000 2.000000
-149.53540039 -770.92047119 64.72170258 2.000000 2.000000
-44.56850052 -747.78692627 13.01500034 1.000000 1.000000
-62.60160065 -857.41162109 63.31280136 2.000000 2.000000
-137.59210205 -771.96337891 74.72709656 2.000000 2.000000
-87.70929718 -811.91992188 76.37830353 2.000000 2.000000
-130.40750122 -804.10107422 54.75199890 2.000000 2.000000
-47.75989914 -843.61627197 94.13140106 2.000000 2.000000
-27.08869934 -807.55401611 96.81880188 2.000000 2.000000
-85.72440338 -815.70367432 91.54000092 2.000000 2.000000
-62.27569962 -831.01171875 85.53260040 2.000000 2.000000
-50.73889923 -858.83502197 81.49600220 2.000000 2.000000
-58.17969894 -795.73052979 102.88719940 1.000000 1.000000
-23.47629929 -837.94732666 96.92539978 2.000000 2.000000
-35.89619827 -873.55871582 63.50360107 2.000000 2.000000
-168.58009338 -758.35900879 37.09709930 2.000000 2.000000
-135.21699524 -744.01739502 85.57330322 2.000000 2.000000
-49.84859848 -760.74792480 47.37379837 1.000000 1.000000
-171.99070740 -764.42987061 32.98009872 2.000000 2.000000
-84.55229950 -799.80621338 110.05529785 2.000000 2.000000
-44.01419830 -849.15490723 90.26920319 2.000000 2.000000
-141.51860046 -771.69158936 71.89600372 2.000000 2.000000
-147.15640259 -776.52740479 64.99909973 2.000000 2.000000
-21.20249939 -863.97302246 77.43840027 2.000000 2.000000
-59.47449875 -852.44262695 78.70590210 2.000000 2.000000
-19.79350090 -832.10321045 99.77369690 2.000000 2.000000
-142.08309937 -743.34582520 81.10729980 2.000000 2.000000
-21.33639908 -846.13378906 93.67810059 2.000000 2.000000
-5.45970011 -884.09918213 43.55039978 2.000000 2.000000
-132.46420288 -789.03521729 70.74160004 2.000000 2.000000
-59.54119873 -850.81896973 81.35590363 2.000000 2.000000
-163.47659302 -763.90502930 44.57239914 2.000000 2.000000
-68.71510315 -823.68927002 92.85260010 2.000000 2.000000
-39.94359970 -808.44781494 103.48690033 2.000000 2.000000
-14.47039986 -729.38977051 26.22159958 2.000000 2.000000
-62.61819839 -846.28710938 81.45629883 2.000000 2.000000
-93.24089813 -794.40631104 108.09909821 2.000000 2.000000
-116.30249786 -766.32757568 93.53610229 2.000000 2.000000
-40.44400024 -808.10772705 103.39530182 2.000000 2.000000
-31.85280037 -869.58227539 67.98390198 2.000000 2.000000
-36.18270111 -813.80249023 99.21839905 2.000000 2.000000
-29.15570068 -815.37567139 98.44830322 2.000000 2.000000
-10.39949989 -836.03442383 89.61830139 2.000000 2.000000
-59.55550003 -830.38287354 89.45670319 2.000000 2.000000
-58.71640015 -821.52178955 97.88289642 2.000000 2.000000
-88.32820129 -810.89569092 88.82450104 2.000000 2.000000
-35.58110046 -882.45697021 43.16880035 2.000000 2.000000
-118.72450256 -765.23492432 91.32189941 2.000000 2.000000
-128.97309875 -758.03869629 87.26239777 2.000000 2.000000
-75.60910034 -775.75622559 84.58719635 1.000000 1.000000
-51.31200027 -855.78948975 83.13619995 2.000000 2.000000
-26.44330025 -738.75921631 32.44829941 2.000000 2.000000
-63.55089951 -812.43072510 109.02799988 2.000000 2.000000
-125.77519989 -791.44970703 70.86430359 2.000000 2.000000
-98.49109650 -800.75012207 76.42829895 2.000000 2.000000
-33.36439896 -811.71997070 99.37889862 2.000000 2.000000
-38.93899918 -813.45941162 100.50610352 2.000000 2.000000
-100.17099762 -775.20837402 85.30840302 1.000000 1.000000
-155.75770569 -741.68939209 65.00640106 2.000000 2.000000
-94.35659790 -805.49072266 78.35540009 2.000000 2.000000
-114.44090271 -797.80090332 73.11859894 2.000000 2.000000
-42.58010101 -861.83001709 85.57669830 2.000000 2.000000
-65.47969818 -852.12329102 68.95510101 2.000000 2.000000
-52.95510101 -840.85607910 93.13580322 2.000000 2.000000
-36.08869934 -873.33911133 63.98329926 2.000000 2.000000
-2.09829998 -877.61322021 48.70349884 2.000000 2.000000
-96.52279663 -803.08337402 80.27809906 2.000000 2.000000
-16.19379997 -854.70312500 88.47109985 2.000000 2.000000
-65.74259949 -854.35711670 63.88489914 2.000000 2.000000
-159.51930237 -782.87731934 47.69260025 2.000000 2.000000
-116.48090363 -803.90869141 63.63529968 2.000000 2.000000
-63.75090027 -825.12091064 88.09750366 2.000000 2.000000
2.29530001 -845.41809082 67.63839722 2.000000 2.000000
-100.94239807 -773.98742676 85.37100220 1.000000 1.000000
-34.99309921 -814.22662354 99.42269897 2.000000 2.000000
-134.04699707 -785.28717041 73.86090088 2.000000 2.000000
-41.95489883 -851.83020020 90.54940033 2.000000 2.000000
-45.34220123 -852.60382080 88.27480316 2.000000 2.000000
-68.89479828 -826.43572998 67.19979858 2.000000 2.000000
4.59569979 -846.94488525 62.91389847 2.000000 2.000000
-115.57959747 -791.92132568 79.84249878 2.000000 2.000000
-125.93389893 -764.47668457 87.35420227 2.000000 2.000000
-20.93689919 -735.71582031 29.74530029 2.000000 2.000000
-82.49759674 -807.65130615 101.14009857 2.000000 2.000000
-26.36590004 -834.31048584 99.52639771 2.000000 2.000000
-86.03919983 -803.79400635 107.98519897 2.000000 2.000000
-122.72799683 -809.21691895 51.02899933 2.000000 2.000000
-38.66370010 -817.52416992 98.72969818 2.000000 2.000000
-33.27510071 -884.76519775 41.62969971 2.000000 2.000000
-45.50360107 -810.47332764 94.87969971 1.000000 1.000000
-69.89640045 -800.23358154 103.64309692 1.000000 1.000000
-37.55830002 -815.98388672 99.05470276 2.000000 2.000000
-68.36769867 -823.36688232 94.42209625 2.000000 2.000000
-57.63489914 -854.24230957 79.41619873 2.000000 2.000000
-92.99210358 -807.91839600 80.56179810 2.000000 2.000000
-25.62280083 -876.41009521 57.94409943 2.000000 2.000000
-88.24320221 -806.02478027 60.73519897 2.000000 2.000000
-65.33309937 -855.86627197 57.53459930 2.000000 2.000000
-140.34480286 -778.60400391 72.28530121 2.000000 2.000000
-34.61040115 -811.98559570 100.31960297 2.000000 2.000000
-137.65339661 -740.92858887 84.45570374 2.000000 2.000000
-52.01399994 -789.19689941 88.90809631 1.000000 1.000000
-124.41149902 -797.53448486 66.14949799 2.000000 2.000000
-24.97509956 -848.43328857 94.18830109 2.000000 2.000000
-98.72440338 -799.40020752 88.39129639 2.000000 2.000000
-61.78889847 -831.63482666 85.50700378 2.000000 2.000000
-81.68219757 -814.19677734 101.14189911 2.000000 2.000000
-144.24830627 -757.79278564 74.30940247 2.000000 2.000000
-26.63010025 -870.52697754 65.33989716 2.000000 2.000000
-18.11940002 -874.16937256 60.35060120 2.000000 2.000000
-55.39690018 -796.98419189 118.41010284 2.000000 2.000000
-53.88259888 -783.84741211 84.36470032 1.000000 1.000000
-36.62070084 -882.31231689 42.96810150 2.000000 2.000000
-5.13829994 -876.19671631 50.83720016 2.000000 2.000000
-74.63539886 -818.84558105 101.53559875 2.000000 2.000000
-121.76969910 -812.91467285 45.39319992 2.000000 2.000000
-161.71080017 -775.23748779 46.74789810 2.000000 2.000000
-85.38580322 -809.27941895 60.72240067 2.000000 2.000000
-158.12089539 -783.49267578 48.64170074 2.000000 2.000000
-84.63200378 -814.17730713 95.45590210 2.000000 2.000000
-141.51719666 -776.67022705 70.79609680 2.000000 2.000000
-90.37359619 -810.37597656 81.48169708 2.000000 2.000000
-151.35589600 -779.02307129 58.98300171 2.000000 2.000000
-5.69010019 -726.90209961 23.96689987 2.000000 2.000000
2.98399997 -875.07458496 50.34719849 2.000000 2.000000
-87.36499786 -797.42602539 110.17610168 2.000000 2.000000
-59.56470108 -851.40850830 80.44360352 2.000000 2.000000
-54.49300003 -859.39160156 77.57080078 2.000000 2.000000
-43.99100113 -816.39727783 95.49420166 1.000000 1.000000
-21.23439980 -729.14898682 28.26980019 2.000000 2.000000
-15.27859974 -849.38623047 89.76429749 2.000000 2.000000
-63.63529968 -832.40692139 78.49459839 2.000000 2.000000
-56.02510071 -800.21667480 110.94460297 2.000000 2.000000
-131.40719604 -791.94427490 68.56839752 2.000000 2.000000
-121.34989929 -792.53222656 72.33100128 2.000000 2.000000
-118.46250153 -760.71191406 94.04499817 2.000000 2.000000
-59.52679825 -855.22741699 76.12819672 2.000000 2.000000
-68.30719757 -815.39727783 106.06659698 2.000000 2.000000
-37.88169861 -878.45452881 50.78070068 2.000000 2.000000
-20.73719978 -824.82397461 100.06629944 2.000000 2.000000
-88.61720276 -809.54168701 92.71230316 2.000000 2.000000
-135.31900024 -759.30291748 84.18170166 2.000000 2.000000
-88.75980377 -811.23107910 83.68039703 2.000000 2.000000
-138.25810242 -751.22747803 83.01409912 2.000000 2.000000
-154.19059753 -761.20648193 61.10480118 2.000000 2.000000
-53.82080078 -822.76177979 99.25769806 2.000000 2.000000
-58.84700012 -845.62017822 85.38009644 2.000000 2.000000
-46.68830109 -854.81451416 86.70989990 2.000000 2.000000
-94.15619659 -790.90588379 107.46520233 2.000000 2.000000
-16.05360031 -726.10870361 26.68650055 2.000000 2.000000
-65.36759949 -850.48858643 72.10530090 2.000000 2.000000
-38.36579895 -868.52258301 70.61329651 2.000000 2.000000
-34.95539856 -839.07641602 93.16539764 1.000000 1.000000
-134.32269287 -751.64782715 84.82389832 2.000000 2.000000
-51.00059891 -763.94927979 45.85620117 1.000000 1.000000
-95.20269775 -803.94750977 76.21060181 2.000000 2.000000
-151.20539856 -752.97790527 66.98020172 2.000000 2.000000
-62.40819931 -833.17028809 82.21440125 2.000000 2.000000
-24.44169998 -842.48278809 93.85769653 2.000000 2.000000
-141.52259827 -773.38787842 71.33789825 2.000000 2.000000
-50.75329971 -762.57397461 42.18529892 1.000000 1.000000
-89.59919739 -810.71209717 85.70130157 2.000000 2.000000
-160.48649597 -769.54168701 50.00839996 2.000000 2.000000
-46.43669891 -849.75207520 89.72760010 2.000000 2.000000
-82.54129791 -809.94500732 99.07730103 2.000000 2.000000
-21.96929932 -808.44427490 92.78240204 2.000000 2.000000
-130.13850403 -752.90112305 87.74060059 2.000000 2.000000
-45.52099991 -748.69848633 12.58549976 1.000000 1.000000
-42.05519867 -750.87902832 32.10509872 1.000000 1.000000
-153.00309753 -749.43762207 66.05290222 2.000000 2.000000
-33.87210083 -806.16821289 101.19339752 2.000000 2.000000
-148.52209473 -772.93481445 64.80059814 2.000000 2.000000
-122.38490295 -792.20507813 72.04270172 2.000000 2.000000
-149.97779846 -756.11938477 67.17839813 2.000000 2.000000
-11.93869972 -878.28887939 54.26319885 2.000000 2.000000
-52.23189926 -789.67761230 89.22309875 1.000000 1.000000
4.08580017 -878.27929688 46.20259857 2.000000 2.000000
-121.46320343 -782.19738770 80.18830109 2.000000 2.000000
-130.93969727 -790.75762939 70.11450195 2.000000 2.000000
-55.43420029 -770.37121582 70.30629730 1.000000 1.000000
-138.54240417 -800.65612793 55.35200119 2.000000 2.000000
-89.87149811 -808.47131348 72.85669708 2.000000 2.000000
-62.53229904 -863.05590820 51.50690079 2.000000 2.000000
-48.16469955 -822.90777588 99.95030212 2.000000 2.000000
-18.56760025 -843.53338623 92.16459656 2.000000 2.000000
-85.92729950 -815.91699219 77.03119659 2.000000 2.000000
-15.85029984 -727.60180664 26.63409996 2.000000 2.000000
-39.82149887 -830.80731201 93.73660278 1.000000 1.000000
-62.30110168 -844.38232422 83.14499664 2.000000 2.000000
-49.91630173 -763.59521484 45.92890167 1.000000 1.000000
-115.96820068 -794.72821045 75.09860229 2.000000 2.000000
-136.58540344 -771.83740234 75.30519867 1.000000 1.000000
-86.16649628 -812.83337402 94.20559692 2.000000 2.000000
-154.50419617 -774.49761963 56.04980087 2.000000 2.000000
-149.53799438 -775.83880615 62.68619919 2.000000 2.000000
-20.58309937 -735.36401367 29.72640038 2.000000 2.000000
-121.92659760 -752.42547607 95.19940186 2.000000 2.000000
-7.96269989 -723.35601807 23.25880051 2.000000 2.000000
-141.84860229 -778.59997559 69.94930267 2.000000 2.000000
-41.40119934 -811.37322998 102.23370361 2.000000 2.000000
-57.55500031 -797.03631592 109.68620300 2.000000 2.000000
-40.66460037 -829.57647705 93.29650116 1.000000 1.000000
-13.08940029 -854.84332275 85.62529755 2.000000 2.000000
-68.44560242 -795.94647217 115.14700317 2.000000 2.000000
-12.71010017 -868.73730469 65.68250275 2.000000 2.000000
-145.51800537 -766.20849609 69.28379822 2.000000 2.000000
-58.72449875 -846.97357178 84.55400085 2.000000 2.000000
-20.42779922 -863.47308350 78.65470123 2.000000 2.000000
-130.14089966 -750.61578369 88.51719666 2.000000 2.000000
-2.10339999 -722.98339844 23.83209991 2.000000 2.000000
-23.06819916 -830.46051025 99.78600311 2.000000 2.000000
-62.99029922 -850.31738281 76.83029938 2.000000 2.000000
-84.44400024 -812.78668213 96.40480042 2.000000 2.000000
-87.85320282 -793.41442871 111.46399689 2.000000 2.000000
-59.05400085 -830.92907715 89.51930237 2.000000 2.000000
-35.10789871 -806.63171387 101.18810272 2.000000 2.000000
-76.89820099 -812.21398926 104.65720367 2.000000 2.000000
-121.35279846 -751.63079834 95.76239777 2.000000 2.000000
-136.53129578 -756.29388428 83.50160217 2.000000 2.000000
-116.19129944 -773.70208740 84.28919983 1.000000 1.000000
-49.42910004 -842.11022949 94.51149750 2.000000 2.000000
-154.51130676 -778.81408691 55.23070145 2.000000 2.000000
-39.46630096 -846.76031494 90.51879883 1.000000 1.000000
-82.49610138 -773.96307373 84.41529846 1.000000 1.000000
-52.33890152 -828.95812988 95.05300140 2.000000 2.000000
-147.74440002 -759.54522705 68.80919647 2.000000 2.000000
-53.65700150 -823.31268311 98.88919830 2.000000 2.000000
-30.59300041 -814.64508057 98.85019684 2.000000 2.000000
-85.55539703 -814.37689209 73.42079926 2.000000 2.000000
-54.01079941 -777.84582520 77.65540314 1.000000 1.000000
-48.71549988 -759.95849609 36.55920029 1.000000 1.000000
-129.03149414 -790.77252197 71.04989624 2.000000 2.000000
-53.83589935 -857.69592285 80.12680054 2.000000 2.000000
-15.53110027 -868.44079590 67.27400208 2.000000 2.000000
-8.03660011 -727.45867920 24.63909912 2.000000 2.000000
-149.04429626 -752.58807373 70.08460236 2.000000 2.000000
-52.14659882 -840.35137939 94.26159668 2.000000 2.000000
-130.81530762 -772.38427734 78.17659760 1.000000 1.000000
-54.54180145 -864.28680420 70.38939667 2.000000 2.000000
-9.33950043 -723.48992920 24.02370071 2.000000 2.000000
-91.87699890 -807.40228271 93.50109863 2.000000 2.000000
-58.79499817 -846.17578125 85.05220032 2.000000 2.000000
-122.70269775 -751.35137939 94.86100006 2.000000 2.000000
-89.44589996 -805.00292969 64.45610046 2.000000 2.000000
-40.25780106 -858.27032471 89.07460022 2.000000 2.000000
-154.09620667 -762.42431641 60.75619888 2.000000 2.000000
-44.82239914 -847.19268799 92.39530182 2.000000 2.000000
-6.50400019 -870.40747070 59.37239838 2.000000 2.000000
-47.89849854 -753.15051270 20.91510010 1.000000 1.000000
-72.67500305 -816.83459473 102.63939667 2.000000 2.000000
-19.56489944 -836.82299805 95.81999969 2.000000 2.000000
-49.62979889 -864.40887451 77.48509979 2.000000 2.000000
-49.46829987 -762.00311279 48.11140060 1.000000 1.000000
-57.58570099 -819.40429688 100.46389771 2.000000 2.000000
-62.93270111 -826.38122559 88.31340027 2.000000 2.000000
-127.99749756 -790.31170654 71.58129883 2.000000 2.000000
-51.62779999 -847.81762695 89.61990356 2.000000 2.000000
-48.67879868 -805.69482422 92.24220276 1.000000 1.000000
-96.63539886 -803.37438965 77.97499847 2.000000 2.000000
-150.14570618 -745.49121094 72.59989929 2.000000 2.000000
-20.01090050 -852.12927246 92.17489624 2.000000 2.000000
-65.07050323 -861.56121826 45.18870163 2.000000 2.000000
-123.69380188 -803.43658447 59.09740067 2.000000 2.000000
-48.70600128 -822.51330566 100.11699677 2.000000 2.000000
-143.78199768 -761.13507080 72.69429779 2.000000 2.000000
-81.88950348 -815.69091797 99.64540100 2.000000 2.000000
-132.88029480 -792.09362793 67.88050079 2.000000 2.000000
-51.45740128 -862.30957031 77.23989868 2.000000 2.000000
-140.90829468 -774.08197021 71.65450287 2.000000 2.000000
-48.84450150 -798.49328613 91.75759888 1.000000 1.000000
-13.87380028 -868.75402832 66.18000031 2.000000 2.000000
-96.20829773 -786.27148438 104.70819855 2.000000 2.000000
-85.28170013 -816.07159424 75.12750244 2.000000 2.000000
-27.99259949 -873.55877686 61.40859985 2.000000 2.000000
-15.75020027 -839.19018555 92.80290222 2.000000 2.000000
-102.94309998 -775.43518066 84.71569824 1.000000 1.000000
-86.84230042 -812.71942139 92.04759979 2.000000 2.000000
-15.24940014 -864.77282715 79.23480225 2.000000 2.000000
-142.07380676 -777.68548584 69.54290009 2.000000 2.000000
-65.90650177 -831.35961914 72.31970215 2.000000 2.000000
-90.73889923 -808.96362305 91.59069824 2.000000 2.000000
2.49009991 -877.55511475 46.51020050 2.000000 2.000000
-64.31020355 -849.39508057 76.28720093 2.000000 2.000000
-43.00600052 -879.02911377 45.87900162 2.000000 2.000000
-68.10260010 -774.69598389 83.21430206 1.000000 1.000000
-84.21649933 -815.80377197 94.39790344 2.000000 2.000000
-60.98479843 -851.15191650 78.64260101 2.000000 2.000000
-13.35779953 -884.14312744 45.92470169 2.000000 2.000000
-44.59429932 -816.87628174 95.11979675 1.000000 1.000000
-94.98860168 -804.16601563 92.93080139 2.000000 2.000000
-68.40440369 -818.24468994 102.55660248 2.000000 2.000000
-87.32740021 -813.87231445 85.88559723 2.000000 2.000000
-30.80419922 -812.64697266 98.73000336 2.000000 2.000000
-126.81620026 -802.30828857 59.09410095 2.000000 2.000000
-141.59440613 -765.09020996 73.74980164 2.000000 2.000000
-1.17170000 -882.55718994 43.93159866 2.000000 2.000000
-125.07209778 -767.17907715 87.15689850 2.000000 2.000000
-123.55509949 -770.24188232 86.69550323 2.000000 2.000000
-36.56090164 -866.70239258 70.79789734 2.000000 2.000000
-65.11430359 -850.49731445 73.17549896 2.000000 2.000000
-151.46980286 -755.31848145 66.06279755 2.000000 2.000000
-78.99330139 -810.11853027 105.42440033 2.000000 2.000000
-46.85139847 -751.13690186 24.87849998 1.000000 1.000000
-56.68299866 -857.23309326 76.76670074 2.000000 2.000000
-162.11709595 -762.48651123 46.56010056 2.000000 2.000000
-129.21699524 -791.12951660 70.40720367 2.000000 2.000000
-30.90159988 -856.23791504 81.35310364 1.000000 1.000000
-14.77480030 -882.24182129 52.81629944 2.000000 2.000000
-40.35680008 -825.26019287 93.91470337 1.000000 1.000000
-94.45520020 -805.47912598 79.09510040 2.000000 2.000000
-13.72910023 -870.80126953 61.62710190 2.000000 2.000000
-1.62730002 -840.14038086 77.53730011 2.000000 2.000000
-67.20790100 -854.70147705 55.74860001 2.000000 2.000000
-82.46589661 -808.39831543 98.88629913 2.000000 2.000000
-148.27270508 -748.13269043 74.96920013 2.000000 2.000000
-50.17910004 -844.91528320 91.19490051 2.000000 2.000000
-86.77909851 -774.23077393 85.54270172 1.000000 1.000000
-91.71080017 -794.76318359 109.30729675 2.000000 2.000000
-54.46820068 -840.19567871 93.08249664 2.000000 2.000000
-92.45939636 -808.88482666 81.78019714 2.000000 2.000000
-129.49000549 -762.42047119 86.41069794 2.000000 2.000000
-75.23729706 -809.14111328 105.49649811 2.000000 2.000000
-137.51640320 -736.43072510 84.17150116 2.000000 2.000000
-45.23249817 -865.69262695 80.95130157 2.000000 2.000000
-20.04159927 -801.03497314 87.59369659 2.000000 2.000000
-98.66680145 -800.93322754 75.59549713 2.000000 2.000000
-122.06410217 -774.01123047 81.47660065 1.000000 1.000000
-0.80800003 -870.51031494 61.38750076 2.000000 2.000000
-70.14700317 -823.15991211 95.17400360 2.000000 2.000000
-69.75099945 -852.86431885 57.41159821 2.000000 2.000000
-142.27690125 -777.05468750 69.72090149 2.000000 2.000000
-91.01090240 -803.70172119 61.01530075 2.000000 2.000000
-127.26959991 -762.04870605 87.20220184 2.000000 2.000000
-45.23600006 -850.04321289 89.47480011 2.000000 2.000000
-93.83170319 -805.92498779 90.64749908 2.000000 2.000000
-67.71810150 -844.71862793 78.99819946 2.000000 2.000000
-45.10749817 -739.67102051 -1.14339995 1.000000 1.000000
-54.23149872 -859.33038330 77.88790131 2.000000 2.000000
-95.42199707 -788.94091797 106.01770020 2.000000 2.000000
-50.83779907 -853.95648193 84.93430328 2.000000 2.000000
-61.94129944 -773.52929688 79.00550079 1.000000 1.000000
-58.63610077 -796.22937012 104.25569916 1.000000 1.000000
-21.26490021 -881.33880615 51.16149902 2.000000 2.000000
-77.81179810 -817.06622314 102.89759827 2.000000 2.000000
-18.48200035 -731.07562256 27.39369965 2.000000 2.000000
-22.62599945 -862.62567139 80.26000214 2.000000 2.000000
-51.08129883 -764.96038818 57.24539948 1.000000 1.000000
-117.82199860 -792.60437012 74.99030304 2.000000 2.000000
-93.95459747 -806.00238037 78.16359711 2.000000 2.000000
-33.83539963 -843.43402100 94.75769806 2.000000 2.000000
-147.89900208 -755.36437988 70.22740173 2.000000 2.000000
-78.59130096 -804.00408936 106.28320313 2.000000 2.000000
-135.10629272 -783.31762695 77.71350098 2.000000 2.000000
-62.71080017 -845.35827637 82.18299866 2.000000 2.000000
-4.54370022 -870.86212158 58.85100174 2.000000 2.000000
-53.62039948 -821.77868652 99.55010223 2.000000 2.000000
-50.97510147 -758.21252441 41.98130035 1.000000 1.000000
-36.99129868 -816.36218262 99.37149811 2.000000 2.000000
-160.46099854 -761.47399902 49.35800171 2.000000 2.000000
-94.78869629 -804.62689209 93.43949890 2.000000 2.000000
-46.26499939 -750.57141113 21.72999954 1.000000 1.000000
-34.21630096 -811.55078125 100.09729767 2.000000 2.000000
-9.33870029 -841.03918457 86.65899658 2.000000 2.000000
-137.95559692 -791.79168701 66.37509918 2.000000 2.000000
-141.98840332 -768.69372559 71.99700165 2.000000 2.000000
-88.12550354 -791.39239502 111.65640259 2.000000 2.000000
-160.97070313 -770.60461426 49.54010010 2.000000 2.000000
-16.28370094 -865.22991943 77.91570282 2.000000 2.000000
-157.28550720 -759.75012207 55.61949921 2.000000 2.000000
-25.22430038 -873.59338379 61.58860016 2.000000 2.000000
-58.07789993 -794.03167725 103.44850159 1.000000 1.000000
-43.09849930 -879.53009033 45.43880081 2.000000 2.000000
-84.76499939 -811.37469482 66.62149811 2.000000 2.000000
-39.72940063 -807.60589600 103.38240051 2.000000 2.000000
-60.37789917 -844.25341797 85.38140106 2.000000 2.000000
-23.39839935 -804.53448486 93.11289978 2.000000 2.000000
-85.99259949 -803.85577393 107.92500305 2.000000 2.000000
-51.27099991 -843.31311035 92.33679962 2.000000 2.000000
-32.70439911 -881.26110840 47.43360138 2.000000 2.000000
-126.24880219 -813.50048828 43.81719971 2.000000 2.000000
-30.05680084 -847.18011475 94.42990112 2.000000 2.000000
-96.87920380 -802.88928223 78.71040344 2.000000 2.000000
-26.98329926 -741.26440430 33.19869995 2.000000 2.000000
-110.43659973 -774.97088623 84.38569641 1.000000 1.000000
-29.21879959 -859.80950928 77.11430359 1.000000 1.000000
-118.81469727 -795.43939209 70.89199829 2.000000 2.000000
-34.12799835 -808.32922363 101.22949982 2.000000 2.000000
-86.18029785 -808.22479248 57.35720062 2.000000 2.000000
-85.27449799 -820.74792480 89.50740051 2.000000 2.000000
-36.59849930 -877.63421631 53.48509979 2.000000 2.000000
-34.95190048 -878.81219482 51.40510178 2.000000 2.000000
-27.06909943 -733.94482422 32.58959961 2.000000 2.000000
-43.41949844 -862.56610107 84.81179810 2.000000 2.000000
-28.84729958 -803.50537109 97.11959839 2.000000 2.000000
-58.04869843 -851.69030762 81.85250092 2.000000 2.000000
-30.17970085 -875.67187500 58.22579956 2.000000 2.000000
-58.39360046 -861.68481445 65.47100067 2.000000 2.000000
-154.65480042 -769.00708008 57.53590012 2.000000 2.000000
-52.99409866 -763.67541504 55.44490051 1.000000 1.000000
-98.31919861 -799.47192383 87.78540039 2.000000 2.000000
-88.01640320 -808.62322998 96.50710297 2.000000 2.000000
-140.71560669 -735.31848145 81.37259674 2.000000 2.000000
-138.94250488 -768.39611816 75.00810242 2.000000 2.000000
-56.49200058 -821.46740723 99.10669708 2.000000 2.000000
-28.03030014 -865.85491943 71.40309906 2.000000 2.000000
-136.76300049 -763.15759277 83.60119629 2.000000 2.000000
-67.34159851 -856.08868408 51.21369934 2.000000 2.000000
-63.45999908 -857.89428711 58.50379944 2.000000 2.000000
-153.86369324 -742.68157959 68.85260010 2.000000 2.000000
-63.42219925 -833.67480469 77.72139740 2.000000 2.000000
-21.20619965 -730.01867676 28.41710091 2.000000 2.000000
-50.12070084 -865.72998047 75.20259857 2.000000 2.000000
-48.74530029 -866.25347900 76.71399689 2.000000 2.000000
-59.94390106 -834.60449219 86.27200317 2.000000 2.000000
-33.39799881 -847.74621582 93.91139984 2.000000 2.000000
-39.97389984 -814.39282227 99.39800262 2.000000 2.000000
-38.43700027 -747.60083008 33.56039810 1.000000 1.000000
-135.80650330 -807.60577393 47.16360092 2.000000 2.000000
-54.03350067 -829.78289795 94.04709625 2.000000 2.000000
-12.96790028 -840.10449219 90.70310211 2.000000 2.000000
-98.90769958 -800.39392090 90.58709717 2.000000 2.000000
-4.61350012 -870.55517578 59.46989822 2.000000 2.000000
-7.02320004 -871.42321777 57.76660156 2.000000 2.000000
-65.17389679 -830.60369873 75.72370148 2.000000 2.000000
-39.16979980 -811.29638672 102.08399963 2.000000 2.000000
-131.89759827 -744.87701416 87.77529907 2.000000 2.000000
-122.11399841 -755.87847900 93.87480164 2.000000 2.000000
-55.36399841 -841.13378906 91.98719788 2.000000 2.000000
-139.37649536 -734.42218018 82.69029999 2.000000 2.000000
-165.20809937 -759.05999756 41.67309952 2.000000 2.000000
-6.92729998 -834.55242920 87.48169708 2.000000 2.000000
-135.35719299 -803.71807861 52.50889969 2.000000 2.000000
-131.56280518 -746.38146973 87.99710083 2.000000 2.000000
-35.39960098 -816.82031250 99.43720245 2.000000 2.000000
-71.27989960 -818.37298584 101.95220184 2.000000 2.000000
-58.10589981 -844.82312012 87.03780365 2.000000 2.000000
-162.36929321 -768.90692139 48.08219910 2.000000 2.000000
-57.68899918 -866.48541260 58.50350189 2.000000 2.000000
-25.16300011 -850.87988281 93.08319855 2.000000 2.000000
-119.27660370 -764.60369873 91.13330078 2.000000 2.000000
-58.72650146 -791.53521729 98.01660156 1.000000 1.000000
-27.77619934 -802.81878662 96.07720184 2.000000 2.000000
-148.36250305 -766.53009033 66.12609863 2.000000 2.000000
-136.58709717 -734.25427246 84.64150238 2.000000 2.000000
-1.79159999 -722.08001709 23.20849991 2.000000 2.000000
-149.76879883 -759.24749756 66.53289795 2.000000 2.000000
-92.98650360 -808.08941650 79.75000000 2.000000 2.000000
-89.47850037 -805.28247070 64.03240204 2.000000 2.000000
-54.91310120 -854.74829102 81.31269836 2.000000 2.000000
-59.67279816 -831.88012695 88.11219788 2.000000 2.000000
-40.33219910 -828.49377441 94.16139984 1.000000 1.000000
-62.89229965 -856.64898682 65.82879639 2.000000 2.000000
-130.04679871 -789.49267578 71.21749878 2.000000 2.000000
-55.08739853 -782.94531250 81.86160278 1.000000 1.000000
-69.62300110 -824.04882813 71.52610016 2.000000 2.000000
-60.48130035 -791.05401611 96.66929626 1.000000 1.000000
-142.31599426 -776.51422119 69.76309967 2.000000 2.000000
-58.05939865 -862.10321045 65.24060059 2.000000 2.000000
-85.54070282 -814.61572266 73.12100220 2.000000 2.000000
-64.52359772 -825.59289551 85.88600159 2.000000 2.000000
-34.35900116 -839.03302002 93.59239960 1.000000 1.000000
5.40259981 -875.78387451 49.82360077 2.000000 2.000000
-66.01930237 -802.07861328 108.19480133 2.000000 2.000000
-48.11809921 -829.24298096 96.43180084 2.000000 2.000000
-89.08570099 -800.70758057 108.45290375 2.000000 2.000000
-27.24850082 -803.49237061 96.06279755 2.000000 2.000000
-83.63629913 -802.89111328 108.91349792 2.000000 2.000000
0.94870001 -846.26977539 69.23509979 2.000000 2.000000
-126.23439789 -810.86480713 47.16419983 2.000000 2.000000
-58.15869904 -853.50201416 79.31649780 2.000000 2.000000
-119.13289642 -763.38122559 91.68170166 2.000000 2.000000
-76.14790344 -821.61682129 98.71430206 2.000000 2.000000
-10.13210011 -726.31408691 24.58749962 2.000000 2.000000
-90.21040344 -804.77130127 100.36430359 2.000000 2.000000
-133.03759766 -805.90148926 50.99420166 2.000000 2.000000
-93.76069641 -805.76232910 92.34950256 2.000000 2.000000
-69.94779968 -823.11077881 95.01879883 2.000000 2.000000
-73.80940247 -822.80731201 98.11109924 2.000000 2.000000
-131.77369690 -767.30529785 84.63449860 2.000000 2.000000
-29.66589928 -739.22381592 33.65660095 2.000000 2.000000
-121.73449707 -775.77197266 81.20899963 1.000000 1.000000
-53.47679901 -859.68060303 78.32900238 2.000000 2.000000
-130.62840271 -804.44537354 55.41439819 2.000000 2.000000
-48.68880081 -757.24078369 38.53559875 1.000000 1.000000
-124.08110046 -791.55712891 72.11589813 2.000000 2.000000
-58.48899841 -852.39337158 80.32769775 2.000000 2.000000
-41.44340134 -850.78051758 91.19210052 2.000000 2.000000
-30.54710007 -839.57220459 96.08020020 2.000000 2.000000
-87.28220367 -815.21697998 78.17289734 2.000000 2.000000
-15.23159981 -867.16333008 74.19509888 2.000000 2.000000
-31.45829964 -876.58471680 56.59059906 2.000000 2.000000
-173.36129761 -762.38378906 32.13000107 2.000000 2.000000
-47.03110123 -844.20861816 93.77709961 2.000000 2.000000
-79.14669800 -766.46520996 44.18180084 2.000000 2.000000
-73.67269897 -813.07177734 104.81410217 2.000000 2.000000
-63.36280060 -809.25091553 109.46250153 2.000000 2.000000
-32.76800156 -810.09002686 99.94580078 2.000000 2.000000
-83.24150085 -814.73718262 98.50360107 2.000000 2.000000
-117.58580017 -764.42541504 92.65840149 2.000000 2.000000
-73.62979889 -820.73217773 99.62960052 2.000000 2.000000
-98.31020355 -773.51757813 85.00839996 1.000000 1.000000
-58.23559952 -794.56408691 103.35910034 1.000000 1.000000
-136.36819458 -751.41882324 83.83959961 2.000000 2.000000
-12.91829967 -848.39190674 87.99330139 2.000000 2.000000
-65.82089996 -821.86749268 95.94760132 2.000000 2.000000
-81.36039734 -796.53692627 113.88169861 2.000000 2.000000
-23.86949921 -842.72528076 93.65000153 2.000000 2.000000
-44.38930130 -737.11590576 -1.40209997 1.000000 1.000000
-42.30839920 -876.35449219 56.64550018 2.000000 2.000000
-149.80790710 -746.49688721 71.96340179 2.000000 2.000000
-28.36549950 -868.18957520 68.85729980 2.000000 2.000000
-36.69160080 -817.56311035 99.13610077 2.000000 2.000000
-137.36239624 -747.57208252 83.83390045 2.000000 2.000000
-53.47439957 -770.16717529 69.36710358 1.000000 1.000000
-35.63370132 -812.33612061 100.03910065 2.000000 2.000000
-93.61039734 -806.70837402 86.71230316 2.000000 2.000000
-9.00080013 -878.43981934 49.67020035 2.000000 2.000000
-153.54530334 -777.98742676 56.51060104 2.000000 2.000000
-11.98519993 -852.83752441 85.18569946 2.000000 2.000000
-12.60359955 -726.38262939 25.14999962 2.000000 2.000000
-30.08440018 -811.06512451 98.76529694 2.000000 2.000000
-101.53309631 -774.06878662 85.52089691 1.000000 1.000000
-39.86149979 -814.46612549 99.16480255 2.000000 2.000000
-72.16030121 -817.97430420 101.98609924 2.000000 2.000000
-30.88879967 -805.23889160 99.85449982 2.000000 2.000000
-54.25230026 -769.93249512 57.03779984 1.000000 1.000000
-0.86849999 -843.46710205 74.14880371 2.000000 2.000000
-88.72489929 -805.75878906 99.92649841 2.000000 2.000000
-122.07270050 -754.55279541 94.47090149 2.000000 2.000000
-139.57760620 -753.20672607 82.41929626 2.000000 2.000000
-37.48559952 -809.23712158 102.28430176 2.000000 2.000000
-13.04489994 -841.44439697 89.51920319 2.000000 2.000000
-130.17990112 -808.64642334 49.20550156 2.000000 2.000000
-61.11959839 -848.92822266 81.44280243 2.000000 2.000000
-72.35240173 -797.12597656 113.83920288 2.000000 2.000000
-95.94249725 -803.04028320 88.62550354 2.000000 2.000000
-151.62219238 -774.84051514 61.06140137 2.000000 2.000000
-44.84859848 -885.38397217 32.25889969 2.000000 2.000000
-25.73390007 -810.69787598 96.14330292 2.000000 2.000000
-49.93980026 -798.64837646 92.14559937 1.000000 1.000000
-46.42169952 -825.69732666 97.42340088 2.000000 2.000000
-134.56210327 -749.82647705 85.35279846 2.000000 2.000000
-86.12100220 -805.72711182 106.96189880 2.000000 2.000000
-20.97710037 -884.24267578 35.17229843 2.000000 2.000000
-51.69530106 -769.30877686 61.04880142 1.000000 1.000000
-57.25149918 -863.99462891 62.30390167 2.000000 2.000000
-82.41000366 -818.60900879 91.58529663 2.000000 2.000000
-79.59770203 -806.73712158 100.21060181 1.000000 1.000000
-30.19720078 -805.07342529 98.95210266 2.000000 2.000000
-73.32119751 -792.93548584 119.09619904 2.000000 2.000000
-129.77580261 -768.12188721 85.31510162 2.000000 2.000000
-54.15269852 -784.55377197 87.19730377 1.000000 1.000000
-21.60820007 -805.21490479 91.84780121 2.000000 2.000000
-83.97010040 -811.98052979 98.12580109 2.000000 2.000000
-28.13929939 -840.05560303 95.62979889 2.000000 2.000000
-139.50289917 -751.60797119 82.70040131 2.000000 2.000000
-44.88750076 -745.90747070 5.13259983 1.000000 1.000000
-57.73440170 -784.70239258 87.78649902 1.000000 1.000000
-49.79249954 -793.33929443 89.69930267 1.000000 1.000000
-83.16049957 -817.15582275 92.98069763 2.000000 2.000000
-78.11930084 -802.09130859 111.16829681 2.000000 2.000000
-135.91430664 -742.41412354 85.21410370 2.000000 2.000000
-36.35129929 -818.59362793 98.94039917 2.000000 2.000000
-142.77830505 -770.47119141 70.86309814 2.000000 2.000000
-34.67919922 -812.51837158 99.39830017 2.000000 2.000000
-138.82470703 -794.88677979 63.39139938 2.000000 2.000000
-44.63370132 -741.52160645 4.38420010 1.000000 1.000000
-49.31200027 -853.27557373 85.76360321 2.000000 2.000000
-15.77690029 -823.13372803 100.36820221 2.000000 2.000000
-87.94470215 -805.66540527 101.20549774 2.000000 2.000000
-48.09859848 -744.51141357 6.80039978 1.000000 1.000000
-59.86819839 -795.40478516 115.12069702 2.000000 2.000000
-16.43899918 -823.20922852 100.27529907 2.000000 2.000000
-77.05729675 -813.14739990 104.53140259 2.000000 2.000000
-49.91880035 -743.45068359 3.53119993 1.000000 1.000000
-58.30070114 -836.67492676 87.18859863 2.000000 2.000000
-58.28189850 -791.22039795 99.89980316 1.000000 1.000000
-137.40390015 -734.09167480 83.86190033 2.000000 2.000000
-127.55979919 -771.95037842 85.84799957 2.000000 2.000000
-48.34469986 -830.27337646 96.30819702 2.000000 2.000000
-94.16490173 -775.25262451 85.67919922 1.000000 1.000000
-136.79209900 -746.65698242 84.61280060 2.000000 2.000000
-101.57890320 -774.73382568 85.28790283 1.000000 1.000000
-15.17529964 -884.10241699 44.98049927 2.000000 2.000000
-85.18869781 -813.73431396 94.40699768 2.000000 2.000000
-65.34559631 -830.40728760 75.76110077 2.000000 2.000000
-144.78070068 -773.95452881 68.69730377 2.000000 2.000000
-72.26619720 -765.14727783 43.92750168 2.000000 2.000000
-25.17230034 -736.84527588 32.21279907 2.000000 2.000000
-59.66170120 -793.88732910 98.15059662 1.000000 1.000000
-56.25310135 -833.05792236 91.12509918 2.000000 2.000000
-70.77359772 -820.44122314 99.56490326 2.000000 2.000000
-27.67659950 -875.98907471 58.91090012 2.000000 2.000000
-60.00859833 -828.48419189 90.14939880 2.000000 2.000000
-50.00410080 -761.03967285 47.94340134 1.000000 1.000000
-32.31579971 -808.72668457 100.07499695 2.000000 2.000000
-151.12950134 -773.81701660 61.78310013 2.000000 2.000000
-59.75239944 -846.16308594 84.45099640 2.000000 2.000000
-118.94090271 -807.62481689 56.82699966 2.000000 2.000000
-58.16820145 -852.31896973 80.80590057 2.000000 2.000000
-61.01779938 -844.05877686 84.95490265 2.000000 2.000000
-2.84660006 -878.20092773 48.30110168 2.000000 2.000000
-66.47599792 -805.08618164 108.51429749 2.000000 2.000000
-54.67290115 -851.21447754 84.79149628 2.000000 2.000000
-21.83069992 -865.25109863 74.59500122 2.000000 2.000000
-140.24279785 -733.23498535 80.89029694 2.000000 2.000000
-69.60880280 -795.23889160 116.65660095 2.000000 2.000000
-65.95420074 -854.33032227 62.70780182 2.000000 2.000000
-51.30860138 -863.35711670 76.11440277 2.000000 2.000000
-21.47719955 -826.89739990 100.30699921 2.000000 2.000000
-80.90969849 -807.03051758 106.77189636 2.000000 2.000000
-58.21170044 -862.51971436 63.65700150 2.000000 2.000000
-117.48699951 -800.91882324 66.06819916 2.000000 2.000000
-171.95159912 -763.97271729 32.98569870 2.000000 2.000000
-63.28900146 -827.53991699 86.60849762 2.000000 2.000000
-24.13089943 -851.20611572 93.89730072 2.000000 2.000000
-53.11360168 -781.28967285 82.65270233 1.000000 1.000000
-138.36059570 -791.92712402 66.21549988 2.000000 2.000000
-60.36809921 -795.73187256 110.14450073 2.000000 2.000000
0.62330002 -834.78967285 80.99939728 2.000000 2.000000
-139.41630554 -764.32250977 76.19010162 2.000000 2.000000
-162.62680054 -765.02630615 45.77550125 2.000000 2.000000
-62.84870148 -855.71948242 68.35389709 2.000000 2.000000
-46.01050186 -866.18981934 79.71260071 2.000000 2.000000
-158.08259583 -766.38269043 53.12929916 2.000000 2.000000
-129.95440674 -789.94671631 71.20030212 2.000000 2.000000
-95.53179932 -789.40240479 105.86370087 2.000000 2.000000
-52.07180023 -791.66729736 122.63220215 2.000000 2.000000
-85.45400238 -766.77191162 44.25159836 2.000000 2.000000
-137.10420227 -769.53649902 85.62770081 2.000000 2.000000
-46.82649994 -862.27447510 82.27950287 2.000000 2.000000
-58.48569870 -862.16479492 63.96789932 2.000000 2.000000
-130.97210693 -748.85467529 87.92209625 2.000000 2.000000
-56.19789886 -782.44891357 88.84230042 1.000000 1.000000
-21.69960022 -733.12701416 29.55039978 2.000000 2.000000
-125.40160370 -792.64648438 70.42169952 2.000000 2.000000
-122.07959747 -793.50708008 71.10289764 2.000000 2.000000
-69.02839661 -821.08361816 98.89640045 2.000000 2.000000
-32.56209946 -812.45642090 99.41449738 2.000000 2.000000
-21.25939941 -737.71252441 30.82220078 2.000000 2.000000
-90.11660004 -775.61871338 85.01390076 1.000000 1.000000
-84.84700012 -817.30511475 90.82460022 2.000000 2.000000
-29.05179977 -855.26092529 90.90110016 2.000000 2.000000
-73.61090088 -770.63830566 43.00799942 2.000000 2.000000
-60.39519882 -834.55041504 84.34750366 2.000000 2.000000
-64.29489899 -826.86810303 85.26740265 2.000000 2.000000
-46.14509964 -747.84417725 8.75070000 1.000000 1.000000
-95.79599762 -786.31329346 105.07240295 2.000000 2.000000
-60.08150101 -773.66381836 79.49289703 1.000000 1.000000
-21.40080070 -731.02252197 29.28720093 2.000000 2.000000
-138.61909485 -729.96520996 80.33460236 2.000000 2.000000
-26.74270058 -831.98632813 100.38890076 2.000000 2.000000
-122.65799713 -751.84472656 94.82289886 2.000000 2.000000
-56.33860016 -797.72662354 115.11879730 2.000000 2.000000
-9.43850040 -840.23498535 86.89129639 2.000000 2.000000
-160.45010376 -774.64093018 47.80970001 2.000000 2.000000
-131.87190247 -794.53240967 66.07910156 2.000000 2.000000
-72.94149780 -822.02941895 98.56680298 2.000000 2.000000
-48.62300110 -843.05548096 94.05020142 2.000000 2.000000
-58.76020050 -773.70599365 78.81349945 1.000000 1.000000
-33.88740158 -839.04522705 93.78459930 1.000000 1.000000
-81.42420197 -821.32489014 83.16320038 2.000000 2.000000
-39.54159927 -817.73937988 98.82900238 2.000000 2.000000
-55.17559814 -788.27770996 95.29160309 1.000000 1.000000
-123.72470093 -781.57672119 79.06849670 2.000000 2.000000
-161.52909851 -766.11651611 47.96770096 2.000000 2.000000
-124.76920319 -804.72290039 57.15019989 2.000000 2.000000
-140.19369507 -771.66119385 72.95800018 2.000000 2.000000
-150.22990417 -764.92730713 64.41909790 2.000000 2.000000
-45.05979919 -831.01611328 97.17810059 2.000000 2.000000
-53.54970169 -763.29290771 53.15729904 1.000000 1.000000
-58.07270050 -857.49102783 74.76329803 2.000000 2.000000
-11.56280041 -725.17578125 23.99749947 2.000000 2.000000
-65.18099976 -857.81958008 52.19010162 2.000000 2.000000
-87.77570343 -806.87097168 64.09989929 2.000000 2.000000
-24.65810013 -867.57342529 69.46700287 2.000000 2.000000
-55.67580032 -796.09289551 120.20929718 2.000000 2.000000
-46.02370071 -742.51330566 5.89489985 1.000000 1.000000
-147.18119812 -769.85852051 66.95179749 2.000000 2.000000
-47.96429825 -862.79919434 80.30000305 2.000000 2.000000
-54.65549850 -858.47698975 78.35520172 2.000000 2.000000
-52.12160110 -829.08007813 95.09400177 2.000000 2.000000
-77.59539795 -814.37902832 104.23349762 2.000000 2.000000
-20.69440079 -799.09857178 87.50330353 2.000000 2.000000
-84.04250336 -796.94018555 112.47119904 2.000000 2.000000
-9.15900040 -725.86132813 24.42090034 2.000000 2.000000
-55.12289810 -864.67980957 68.81289673 2.000000 2.000000
-139.78489685 -758.56896973 82.71299744 2.000000 2.000000
-48.87939835 -869.39172363 75.30680084 2.000000 2.000000
-33.06610107 -869.84613037 67.20149994 2.000000 2.000000
-43.83129883 -743.49127197 -1.07299995 1.000000 1.000000
-50.65480042 -867.94091797 72.50090027 2.000000 2.000000
-60.18460083 -825.77062988 92.64769745 2.000000 2.000000
-82.76010132 -804.48321533 107.90200043 2.000000 2.000000
-22.54630089 -808.28070068 93.64849854 2.000000 2.000000
-90.46820068 -790.96301270 110.11679840 2.000000 2.000000
-86.97979736 -807.20367432 99.55729675 2.000000 2.000000
-120.05249786 -760.06408691 92.58619690 2.000000 2.000000
-52.47629929 -863.08459473 75.37220001 2.000000 2.000000
-70.50360107 -848.33648682 69.62319946 2.000000 2.000000
-161.35929871 -781.68292236 46.59140015 2.000000 2.000000
-123.99199677 -790.09252930 73.03910065 2.000000 2.000000
-97.14739990 -802.50189209 77.48459625 2.000000 2.000000
-56.16090012 -774.19110107 77.03050232 1.000000 1.000000
-23.34919930 -740.39978027 32.25370026 2.000000 2.000000
-84.82599640 -816.77258301 82.03690338 2.000000 2.000000
-66.26390076 -857.89459229 49.13090134 2.000000 2.000000
-59.94200134 -851.83807373 79.70200348 2.000000 2.000000
-59.26440048 -835.84082031 85.84780121 2.000000 2.000000
-47.38930130 -869.05230713 76.70269775 2.000000 2.000000
-77.27819824 -803.58697510 104.23470306 2.000000 2.000000
-49.60919952 -832.52459717 95.19249725 2.000000 2.000000
-15.33220005 -841.61352539 91.54979706 2.000000 2.000000
-118.65989685 -763.18798828 92.20780182 2.000000 2.000000
-134.84049988 -767.14916992 84.14769745 2.000000 2.000000
-45.41550064 -867.07598877 80.03179932 2.000000 2.000000
-46.29370117 -851.27288818 88.06700134 2.000000 2.000000
-53.71920013 -776.39709473 76.14540100 1.000000 1.000000
-113.94000244 -795.90490723 77.21700287 2.000000 2.000000
-84.53730011 -814.73028564 94.24770355 2.000000 2.000000
-41.56380081 -876.34521484 59.75149918 2.000000 2.000000
-84.46089935 -812.71942139 96.45089722 2.000000 2.000000
-65.01789856 -859.65252686 48.05730057 2.000000 2.000000
-85.41999817 -809.43511963 56.36660004 2.000000 2.000000
-19.36199951 -737.78363037 29.45339966 2.000000 2.000000
-66.78260040 -860.01342773 43.82379913 2.000000 2.000000
-82.71420288 -797.75500488 112.59149933 2.000000 2.000000
1.20860004 -885.22583008 38.37260056 2.000000 2.000000
-168.03720093 -761.90087891 37.26219940 2.000000 2.000000
-86.96720123 -799.65277100 109.89070129 2.000000 2.000000
-5.38290024 -844.67211914 80.90460205 2.000000 2.000000
-91.74349976 -807.52929688 93.30799866 2.000000 2.000000
-16.73430061 -729.74987793 26.57550049 2.000000 2.000000
-85.38320160 -817.25512695 75.91110229 2.000000 2.000000
-71.05130005 -801.04461670 110.45200348 2.000000 2.000000
-41.68939972 -862.65582275 85.63400269 2.000000 2.000000
-142.82699585 -758.48907471 76.26950073 2.000000 2.000000
-45.16019821 -816.04150391 93.75910187 1.000000 1.000000
-56.70119858 -782.20727539 84.82649994 1.000000 1.000000
-94.52469635 -773.58831787 85.59670258 1.000000 1.000000
-68.19499969 -797.44512939 110.63410187 2.000000 2.000000
-71.65370178 -805.84802246 107.13059998 2.000000 2.000000
-82.72769928 -817.10998535 95.87940216 2.000000 2.000000
-134.41310120 -787.58697510 71.69960022 2.000000 2.000000
-11.60649967 -873.37780762 57.27619934 2.000000 2.000000
-62.35409927 -795.87951660 112.99009705 2.000000 2.000000
-49.87720108 -763.15667725 51.10589981 1.000000 1.000000
-166.78239441 -769.16320801 40.76739883 2.000000 2.000000
-164.03849792 -768.78271484 44.71829987 2.000000 2.000000
-24.37549973 -804.24578857 94.39350128 2.000000 2.000000
-39.15790176 -883.47192383 38.41049957 2.000000 2.000000
-94.62149811 -803.97741699 72.45559692 2.000000 2.000000
-66.32740021 -848.67138672 75.39150238 2.000000 2.000000
-130.46629333 -789.47088623 71.29290009 2.000000 2.000000
-116.61869812 -763.92077637 94.28880310 2.000000 2.000000
-53.17110062 -756.54931641 29.58790016 1.000000 1.000000
-138.09739685 -768.46771240 75.91179657 2.000000 2.000000
-58.28590012 -857.17950439 75.26540375 2.000000 2.000000
-159.82609558 -772.79827881 49.43239975 2.000000 2.000000
-50.53599930 -743.88562012 7.36959982 1.000000 1.000000
-57.31819916 -863.90338135 62.41910172 2.000000 2.000000
-154.49220276 -779.19140625 55.02920151 2.000000 2.000000
-114.67590332 -798.70812988 72.20300293 2.000000 2.000000
-50.04219818 -857.63037109 83.23829651 2.000000 2.000000
-117.06050110 -810.90478516 55.48440170 2.000000 2.000000
-133.83940125 -738.57348633 86.01409912 2.000000 2.000000
-156.75880432 -766.81842041 54.93669891 2.000000 2.000000
-59.14199829 -861.65887451 63.06110001 2.000000 2.000000
-131.63900757 -796.42871094 63.96429825 2.000000 2.000000
-63.47919846 -850.76647949 75.32790375 2.000000 2.000000
-30.31030083 -840.01007080 95.15339661 2.000000 2.000000
-51.97280121 -769.00500488 59.39519882 1.000000 1.000000
-97.20320129 -801.62768555 90.48870087 2.000000 2.000000
-31.15519905 -815.67578125 98.98480225 2.000000 2.000000
-51.99349976 -768.46258545 64.69930267 1.000000 1.000000
-82.37280273 -818.07830811 92.56320190 2.000000 2.000000
-139.48019409 -765.79589844 76.14459991 2.000000 2.000000
-46.32569885 -866.82702637 79.02189636 2.000000 2.000000
-58.00009918 -846.03839111 85.87660217 2.000000 2.000000
-38.40530014 -747.61437988 33.57960129 1.000000 1.000000
-54.41159821 -845.45611572 89.23030090 2.000000 2.000000
-26.54529953 -868.55767822 68.06469727 2.000000 2.000000
-155.49119568 -777.49237061 54.38180161 2.000000 2.000000
-64.39730072 -859.58367920 50.39550018 2.000000 2.000000
-171.72819519 -761.79461670 32.75770187 2.000000 2.000000
-17.30030060 -885.30126953 30.94429970 2.000000 2.000000
-97.85119629 -774.80389404 85.53119659 1.000000 1.000000
-159.81219482 -766.09521484 50.91609955 2.000000 2.000000
-39.97729874 -854.66198730 90.59839630 2.000000 2.000000
-13.63529968 -867.59259033 71.17549896 2.000000 2.000000
-33.48320007 -853.05987549 83.97810364 1.000000 1.000000
-56.31380081 -770.72430420 69.27120209 1.000000 1.000000
-36.42729950 -869.86779785 68.16929626 2.000000 2.000000
-19.56410027 -874.55950928 59.77069855 2.000000 2.000000
-96.52749634 -802.27301025 89.65239716 2.000000 2.000000
-58.79320145 -793.39819336 99.55439758 1.000000 1.000000
-64.16419983 -845.68627930 80.80860138 2.000000 2.000000
-77.34839630 -803.38977051 111.20839691 2.000000 2.000000
-137.00770569 -771.49468994 74.84349823 2.000000 2.000000
-48.85029984 -833.60162354 94.87830353 2.000000 2.000000
-55.40869904 -797.86932373 114.55200195 2.000000 2.000000
-128.68620300 -811.51959229 45.31169891 2.000000 2.000000
-56.41419983 -850.47277832 84.14610291 2.000000 2.000000
-110.62370300 -774.87811279 84.36769867 1.000000 1.000000
-146.57839966 -777.78088379 65.20719910 2.000000 2.000000
-128.88059998 -780.47607422 80.24669647 2.000000 2.000000
-87.21459961 -812.18841553 90.30259705 2.000000 2.000000
-43.87979889 -743.61468506 0.49120000 1.000000 1.000000
-26.19280052 -871.82867432 63.94039917 2.000000 2.000000
-64.65859985 -862.95422363 43.90370178 2.000000 2.000000
-55.20149994 -869.23590088 66.75620270 2.000000 2.000000
-50.10079956 -799.16992188 119.92420197 2.000000 2.000000
-93.45449829 -805.72961426 74.76899719 2.000000 2.000000
-84.00479889 -817.75231934 81.60230255 2.000000 2.000000
-21.52149963 -871.31848145 65.83309937 2.000000 2.000000
-136.53450012 -792.57409668 66.06490326 2.000000 2.000000
-156.14450073 -775.33331299 53.64530182 2.000000 2.000000
-27.06389999 -812.15899658 96.92289734 2.000000 2.000000
-35.11330032 -816.60382080 99.48120117 2.000000 2.000000
