-49.03089905 -882.43682861 111.79979706 2.000000 2.000000
-109.02529907 -846.87908936 83.31079865 2.000000 2.000000
-91.32019806 -840.82891846 105.22029877 2.000000 2.000000
-149.25320435 -759.51562500 82.00530243 2.000000 2.000000
-129.79370117 -824.90911865 106.07180023 2.000000 2.000000
-93.21050262 -839.39581299 104.67739868 2.000000 2.000000
-135.18789673 -782.39129639 124.85569763 2.000000 2.000000
-56.35260010 -911.38238525 85.21610260 2.000000 2.000000
-128.27619934 -817.83312988 117.00209808 2.000000 2.000000
-138.39939880 -802.36328125 117.26360321 2.000000 2.000000
-135.81559753 -793.40362549 126.35669708 2.000000 2.000000
-116.27420044 -697.67797852 117.38240051 2.000000 2.000000
-140.26950073 -689.46887207 99.36389923 2.000000 2.000000
-4.98859978 -886.67150879 97.60070038 2.000000 2.000000
-56.14709854 -761.64221191 156.74220276 2.000000 2.000000
-70.34880066 -911.95257568 86.30169678 2.000000 2.000000
-141.95840454 -799.64788818 120.73660278 2.000000 2.000000
-72.12329865 -778.75158691 150.85879517 2.000000 2.000000
-103.04679871 -779.56109619 148.74429321 2.000000 2.000000
-125.21009827 -817.52502441 119.70030212 2.000000 2.000000
-121.74810028 -714.65222168 113.89240265 2.000000 2.000000
-32.75510025 -830.16162109 117.21690369 2.000000 2.000000
-30.47960091 -783.74682617 136.08070374 2.000000 2.000000
-36.41159821 -919.44500732 76.95390320 2.000000 2.000000
-67.45980072 -758.72442627 89.65480042 1.000000 1.000000
-59.93080139 -907.35552979 88.14040375 2.000000 2.000000
-74.64749908 -920.98187256 69.99530029 2.000000 2.000000
-46.11690140 -780.98931885 150.01499939 2.000000 2.000000
-145.32820129 -785.34887695 114.44960022 2.000000 2.000000
-124.10099792 -726.79339600 108.63549805 2.000000 2.000000
-58.53129959 -817.72247314 112.33200073 1.000000 1.000000
-110.26989746 -803.97680664 136.37780762 1.000000 1.000000
-30.18980026 -861.30938721 119.94730377 2.000000 2.000000
-58.54199982 -765.59191895 85.37870026 1.000000 1.000000
-97.31829834 -743.51599121 100.69930267 1.000000 1.000000
-104.39739990 -837.68139648 96.02100372 2.000000 2.000000
-131.80160522 -785.88867188 130.62539673 2.000000 2.000000
-108.95690155 -789.59722900 147.00750732 2.000000 2.000000
-46.88510132 -769.58190918 151.94540405 2.000000 2.000000
-148.44030762 -719.95581055 94.66780090 2.000000 2.000000
-51.39939880 -753.49810791 39.96419907 1.000000 1.000000
-144.17509460 -775.43157959 110.35829926 2.000000 2.000000
-19.63400078 -820.37158203 113.37329865 2.000000 2.000000
-51.41519928 -825.72882080 117.87439728 2.000000 2.000000
-82.24890137 -804.61297607 141.41569519 2.000000 2.000000
-148.56179810 -760.94702148 81.85040283 2.000000 2.000000
-139.92849731 -806.73181152 85.86019897 2.000000 2.000000
-34.68170166 -783.22430420 142.38999939 2.000000 2.000000
-114.09169769 -726.35083008 114.61779785 2.000000 2.000000
-24.51269913 -927.20208740 69.02790070 2.000000 2.000000
-62.89179993 -766.03271484 157.00160217 2.000000 2.000000
-41.45600128 -823.10430908 120.10389709 2.000000 2.000000
-138.89860535 -808.32092285 91.37999725 2.000000 2.000000
-22.98559952 -892.58892822 103.90119934 2.000000 2.000000
-61.92390060 -763.40008545 85.85369873 1.000000 1.000000
-67.94390106 -792.38201904 150.47390747 2.000000 2.000000
-111.95020294 -783.88372803 146.35629272 2.000000 2.000000
-75.14230347 -834.38787842 116.31179810 2.000000 2.000000
-31.73500061 -819.97662354 117.43049622 2.000000 2.000000
-134.24850464 -777.20648193 123.09519958 2.000000 2.000000
-32.77090073 -822.70532227 117.40589905 2.000000 2.000000
-108.95770264 -771.12457275 144.66819763 2.000000 2.000000
-22.67989922 -913.32611084 81.14379883 2.000000 2.000000
-53.67350006 -917.68542480 79.18170166 2.000000 2.000000
-62.87279892 -782.96191406 145.50529480 1.000000 1.000000
-139.97509766 -800.06958008 117.91649628 2.000000 2.000000
-102.50099945 -846.18432617 89.75710297 2.000000 2.000000
-131.42840576 -808.65863037 129.27250671 2.000000 2.000000
-111.79199982 -809.26159668 138.23420715 2.000000 2.000000
-72.66280365 -830.45458984 118.83170319 2.000000 2.000000
-17.17950058 -888.78771973 101.66680145 2.000000 2.000000
-8.29129982 -874.75708008 107.34590149 2.000000 2.000000
-117.23850250 -813.14862061 131.62539673 2.000000 2.000000
-100.34169769 -808.50561523 141.59910583 2.000000 2.000000
-127.31960297 -794.88122559 133.94639587 2.000000 2.000000
-83.71140289 -800.81958008 141.92080688 2.000000 2.000000
-138.78979492 -694.57818604 101.88339996 2.000000 2.000000
-130.22790527 -817.21899414 115.16629791 2.000000 2.000000
-131.67300415 -786.59332275 129.26409912 2.000000 2.000000
-100.56929779 -795.87017822 138.08419800 1.000000 1.000000
-43.95940018 -895.48767090 106.85520172 2.000000 2.000000
-107.80619812 -807.54040527 140.50300598 2.000000 2.000000
-32.11579895 -777.81011963 136.91720581 2.000000 2.000000
-140.33050537 -776.19482422 115.01679993 2.000000 2.000000
-38.27560043 -822.84600830 119.43049622 2.000000 2.000000
-59.05339813 -834.53491211 113.46569824 1.000000 1.000000
-119.21469879 -810.32067871 131.90750122 2.000000 2.000000
-89.31620026 -779.87292480 147.86909485 2.000000 2.000000
-30.66370010 -777.90338135 133.92770386 2.000000 2.000000
-101.02960205 -794.30572510 143.73309326 2.000000 2.000000
-135.25070190 -825.23297119 85.45169830 2.000000 2.000000
-153.12109375 -705.89862061 91.34999847 2.000000 2.000000
-96.31800079 -876.46301270 95.00019836 2.000000 2.000000
-94.50839996 -743.98876953 99.95410156 1.000000 1.000000
-63.24110031 -772.76867676 99.53690338 1.000000 1.000000
-91.54609680 -839.61511230 105.92590332 2.000000 2.000000
-39.91030121 -930.37890625 68.47329712 2.000000 2.000000
-98.27980042 -886.75299072 86.24210358 2.000000 2.000000
-110.01599884 -782.41198730 147.52990723 2.000000 2.000000
-141.51899719 -691.27398682 98.34320068 2.000000 2.000000
-59.46900177 -781.80688477 148.41870117 1.000000 1.000000
-87.69329834 -834.45910645 110.63249969 2.000000 2.000000
-107.58820343 -799.19812012 144.88409424 2.000000 2.000000
-52.74309921 -771.02117920 157.68969727 2.000000 2.000000
-15.82680035 -863.47631836 117.79859924 2.000000 2.000000
-105.94920349 -847.06329346 87.03369904 2.000000 2.000000
-146.12130737 -741.38281250 96.55709839 2.000000 2.000000
-36.20230103 -779.79022217 142.26460266 2.000000 2.000000
-58.15930176 -780.84600830 153.20840454 2.000000 2.000000
-75.05190277 -869.06219482 110.70290375 2.000000 2.000000
-171.63389587 -704.58288574 73.95030212 2.000000 2.000000
-137.32640076 -813.93981934 66.29640198 2.000000 2.000000
-50.12549973 -920.20971680 78.65419769 2.000000 2.000000
-142.77740479 -714.32342529 98.02310181 2.000000 2.000000
-18.60029984 -922.30651855 72.85430145 2.000000 2.000000
-73.22370148 -755.33209229 93.19300079 1.000000 1.000000
-153.68409729 -711.67742920 90.53369904 2.000000 2.000000
-27.20980072 -825.66711426 115.21309662 2.000000 2.000000
-155.35989380 -760.23272705 78.54640198 2.000000 2.000000
-41.96329880 -931.77362061 63.97620010 2.000000 2.000000
-64.16619873 -773.97528076 155.63279724 2.000000 2.000000
-130.48890686 -823.60839844 106.42539978 2.000000 2.000000
-171.96409607 -689.10388184 71.79779816 2.000000 2.000000
-39.63040161 -777.49328613 145.84109497 2.000000 2.000000
-61.68299866 -770.50079346 96.00299835 1.000000 1.000000
-37.61520004 -781.66851807 144.67260742 2.000000 2.000000
-44.73289871 -739.81878662 1.81739998 1.000000 1.000000
-100.42870331 -843.92572021 93.16139984 2.000000 2.000000
-106.28309631 -774.39880371 146.98179626 2.000000 2.000000
-41.30479813 -829.65612793 118.48509979 2.000000 2.000000
-29.60379982 -884.20739746 109.49420166 2.000000 2.000000
-32.56940079 -822.17169189 117.42649841 2.000000 2.000000
-105.31159973 -890.03887939 73.79920197 2.000000 2.000000
-138.49000549 -797.56817627 124.36489868 2.000000 2.000000
-44.02080154 -790.06909180 150.58180237 2.000000 2.000000
-112.67800140 -774.50689697 144.68809509 2.000000 2.000000
-56.03189850 -905.05242920 90.34719849 2.000000 2.000000
-123.12370300 -713.22338867 113.35939789 2.000000 2.000000
-45.30300140 -869.10412598 116.34670258 2.000000 2.000000
-88.87429810 -818.23217773 139.26609802 2.000000 2.000000
-87.46019745 -817.26019287 140.10719299 2.000000 2.000000
-57.60260010 -759.89752197 70.89679718 1.000000 1.000000
-150.56579590 -700.17797852 92.36879730 2.000000 2.000000
-89.84600067 -894.12841797 92.76609802 2.000000 2.000000
-108.11219788 -782.76422119 147.78359985 2.000000 2.000000
-64.97149658 -771.17889404 156.65530396 2.000000 2.000000
-48.83860016 -799.24200439 154.91149902 2.000000 2.000000
-122.49349976 -713.86401367 113.74510193 2.000000 2.000000
-142.52920532 -801.92987061 95.90660095 2.000000 2.000000
-111.69840240 -769.49951172 140.18750000 2.000000 2.000000
-85.35130310 -861.41931152 109.04180145 2.000000 2.000000
-80.86940002 -803.77911377 142.11109924 2.000000 2.000000
-8.86489964 -874.82458496 106.40930176 2.000000 2.000000
-139.60429382 -800.45898438 123.61660004 2.000000 2.000000
-100.78309631 -815.99829102 140.45869446 2.000000 2.000000
-131.52650452 -783.34667969 128.84210205 2.000000 2.000000
-167.59970093 -700.17181396 76.87909698 2.000000 2.000000
-44.04029846 -904.54998779 93.19830322 2.000000 2.000000
-67.51349640 -909.54302979 92.53009796 2.000000 2.000000
-42.96569824 -787.30017090 147.53199768 2.000000 2.000000
-133.72920227 -753.93218994 91.89739990 2.000000 2.000000
-95.40049744 -808.41357422 143.49029541 2.000000 2.000000
-40.39690018 -937.03070068 59.06880188 2.000000 2.000000
-143.80799866 -712.14282227 97.17269897 2.000000 2.000000
-58.91960144 -905.41729736 90.39700317 2.000000 2.000000
-130.27200317 -790.65252686 131.40559387 2.000000 2.000000
-140.82359314 -756.21319580 88.31950378 2.000000 2.000000
-81.70310211 -833.83630371 114.11750031 2.000000 2.000000
-141.26539612 -801.52111816 85.74269867 2.000000 2.000000
-138.53729248 -703.43041992 102.12760162 2.000000 2.000000
-46.14609909 -932.02801514 62.16189957 2.000000 2.000000
-42.42390060 -926.61132813 72.96540070 2.000000 2.000000
-61.30440140 -775.09210205 156.33810425 2.000000 2.000000
-143.97300720 -776.85357666 110.51950073 2.000000 2.000000
-29.67939949 -830.71368408 115.76969910 2.000000 2.000000
-62.76089859 -913.19299316 82.46640015 2.000000 2.000000
-134.74009705 -814.87707520 104.36710358 2.000000 2.000000
-54.13439941 -932.94598389 59.11750031 2.000000 2.000000
-148.54570007 -759.13623047 82.85859680 2.000000 2.000000
-123.10330200 -824.13067627 117.12300110 2.000000 2.000000
-115.14250183 -820.86578369 124.02980042 2.000000 2.000000
-22.82830048 -932.57482910 65.97339630 2.000000 2.000000
-48.23929977 -778.65917969 149.61779785 2.000000 2.000000
-131.58610535 -786.77929688 130.63569641 2.000000 2.000000
-126.52819824 -707.11077881 112.82830048 2.000000 2.000000
-144.15460205 -772.52539063 107.42819977 2.000000 2.000000
-102.01210022 -777.53411865 148.82839966 2.000000 2.000000
-63.62360001 -782.62500000 103.77870178 1.000000 1.000000
-34.52429962 -791.02630615 142.59689331 2.000000 2.000000
-75.09120178 -875.62292480 107.99710083 2.000000 2.000000
-106.57969666 -810.70208740 139.00579834 2.000000 2.000000
-41.72269821 -904.91021729 92.39559937 2.000000 2.000000
-65.72489929 -913.77282715 79.40899658 2.000000 2.000000
-22.22999954 -830.88488770 113.50939941 2.000000 2.000000
-82.35870361 -851.91937256 105.79399872 2.000000 2.000000
-41.67760086 -868.90509033 115.72979736 2.000000 2.000000
-79.80619812 -830.82470703 116.06150055 2.000000 2.000000
-86.51159668 -855.29327393 102.47579956 2.000000 2.000000
-76.15969849 -848.84887695 110.50650024 2.000000 2.000000
-72.07520294 -782.88171387 121.41580200 1.000000 1.000000
-139.26319885 -806.87591553 112.82890320 2.000000 2.000000
-126.45480347 -794.27581787 136.19270325 2.000000 2.000000
-116.15450287 -724.54998779 113.34230042 2.000000 2.000000
-33.69060135 -815.20898438 119.85739899 2.000000 2.000000
-164.34190369 -708.76977539 80.17489624 2.000000 2.000000
-109.96189880 -766.04479980 137.76750183 2.000000 2.000000
-58.78549957 -843.77038574 113.30660248 1.000000 1.000000
-134.20269775 -799.35809326 128.19479370 2.000000 2.000000
-55.50780106 -789.06652832 155.68029785 2.000000 2.000000
-141.73599243 -789.72332764 119.76580048 2.000000 2.000000
-120.38760376 -811.80407715 130.86129761 2.000000 2.000000
-105.99829865 -789.44427490 146.71189880 2.000000 2.000000
-148.51690674 -762.73010254 80.68939972 2.000000 2.000000
-106.70490265 -783.02972412 147.20860291 2.000000 2.000000
-30.74430084 -780.78558350 135.88040161 2.000000 2.000000
-44.86909866 -784.13922119 151.04389954 2.000000 2.000000
-69.08850098 -845.53271484 114.78769684 2.000000 2.000000
-155.62030029 -752.18438721 85.36530304 2.000000 2.000000
-85.58470154 -796.93157959 142.60249329 2.000000 2.000000
-101.42259979 -839.90429688 95.30999756 2.000000 2.000000
-20.93149948 -923.30957031 71.50969696 2.000000 2.000000
-139.39680481 -803.99841309 113.52300262 2.000000 2.000000
-92.47789764 -836.22448730 106.90570068 2.000000 2.000000
-21.79229927 -830.48272705 113.35350037 2.000000 2.000000
-31.92650032 -817.60778809 118.26560211 2.000000 2.000000
-78.18060303 -849.04272461 109.54370117 2.000000 2.000000
-131.75790405 -696.13562012 112.57009888 2.000000 2.000000
-107.46099854 -811.83819580 137.66050720 2.000000 2.000000
-129.32940674 -793.85217285 132.51530457 2.000000 2.000000
-119.42289734 -681.40747070 114.86820221 2.000000 2.000000
-130.08290100 -810.64520264 117.27559662 2.000000 2.000000
-117.82340240 -712.53918457 116.06479645 2.000000 2.000000
-54.37639999 -785.70422363 155.69079590 2.000000 2.000000
-139.24150085 -808.29711914 103.16459656 2.000000 2.000000
-112.32099915 -831.05401611 110.36309814 2.000000 2.000000
-26.91259956 -881.34832764 108.85890198 2.000000 2.000000
-111.39969635 -808.49499512 138.45959473 2.000000 2.000000
-51.14220047 -773.06542969 153.48699951 2.000000 2.000000
-63.90420151 -792.68750000 155.37049866 2.000000 2.000000
-82.11530304 -844.15972900 110.03730011 2.000000 2.000000
-23.38439941 -880.48718262 108.06890106 2.000000 2.000000
-127.72579956 -807.19842529 131.11529541 2.000000 2.000000
-117.91639709 -713.45208740 115.88919830 2.000000 2.000000
-80.82009888 -787.55480957 127.23989868 1.000000 1.000000
-136.02499390 -815.81207275 99.74810028 2.000000 2.000000
-32.36569977 -823.47058105 117.29859924 2.000000 2.000000
-134.78990173 -750.89007568 93.65570068 2.000000 2.000000
-72.61949921 -780.81018066 149.60150146 2.000000 2.000000
-44.64479828 -925.01708984 72.87689972 2.000000 2.000000
-35.71689987 -857.68768311 121.96739960 2.000000 2.000000
-111.37760162 -787.53692627 146.92529297 2.000000 2.000000
-53.40169907 -788.01928711 155.98500061 2.000000 2.000000
-56.32460022 -757.60778809 61.45190048 1.000000 1.000000
-35.62739944 -863.85717773 118.63069916 2.000000 2.000000
-116.03759766 -820.82122803 125.79910278 2.000000 2.000000
-109.89520264 -844.87841797 83.73660278 2.000000 2.000000
-98.06089783 -843.08929443 97.10579681 2.000000 2.000000
-33.66260147 -766.73272705 139.02589417 2.000000 2.000000
-165.85859680 -697.82757568 80.71209717 2.000000 2.000000
-57.72840118 -847.74548340 113.28399658 1.000000 1.000000
-30.40620041 -779.76922607 133.75559998 2.000000 2.000000
-97.39399719 -806.82940674 142.63090515 2.000000 2.000000
-125.76940155 -800.52221680 131.83760071 2.000000 2.000000
-159.64790344 -749.70343018 85.38719940 2.000000 2.000000
-149.20230103 -758.25158691 83.27809906 2.000000 2.000000
-89.17500305 -791.70867920 137.61680603 1.000000 1.000000
-99.39730072 -807.59002686 140.99470520 2.000000 2.000000
-73.75479889 -838.59741211 114.53029633 2.000000 2.000000
-139.66679382 -799.74829102 123.44599915 2.000000 2.000000
-166.14579773 -688.31292725 74.99320221 2.000000 2.000000
-92.84799957 -863.64691162 103.84220123 2.000000 2.000000
-52.79949951 -898.67181396 95.72000122 2.000000 2.000000
-64.00170135 -761.99652100 88.29049683 1.000000 1.000000
-73.22339630 -890.20391846 105.54869843 2.000000 2.000000
-32.73580170 -821.82147217 117.47119904 2.000000 2.000000
-142.85740662 -779.44128418 113.47720337 2.000000 2.000000
-130.33070374 -785.13037109 131.61700439 2.000000 2.000000
-58.52759933 -794.74731445 154.62750244 2.000000 2.000000
-164.91470337 -708.07470703 79.63390350 2.000000 2.000000
-125.80580139 -811.02758789 121.30870056 2.000000 2.000000
-167.99060059 -703.23779297 75.92729950 2.000000 2.000000
-123.60459900 -793.92047119 136.93069458 2.000000 2.000000
-68.96309662 -833.79351807 118.57679749 2.000000 2.000000
-104.95999908 -839.41577148 95.42659760 2.000000 2.000000
-33.09469986 -833.76928711 116.64029694 2.000000 2.000000
-109.10260010 -798.75012207 144.68080139 2.000000 2.000000
-121.20570374 -830.61627197 116.93569946 2.000000 2.000000
-136.23410034 -813.05200195 101.17639923 2.000000 2.000000
-107.76170349 -817.59509277 136.32569885 2.000000 2.000000
-97.40519714 -893.81072998 82.34629822 2.000000 2.000000
-89.71459961 -843.88000488 105.15280151 2.000000 2.000000
-56.43849945 -914.07629395 82.28260040 2.000000 2.000000
-66.58979797 -789.83392334 150.93989563 2.000000 2.000000
-129.64050293 -750.16931152 95.04499817 2.000000 2.000000
-58.73699951 -783.31512451 152.66679382 2.000000 2.000000
-71.79419708 -784.69360352 131.84030151 1.000000 1.000000
-33.32709885 -780.49487305 140.31520081 2.000000 2.000000
-60.81069946 -757.58178711 155.44000244 2.000000 2.000000
-88.69570160 -812.90191650 143.13470459 2.000000 2.000000
-47.71139908 -830.29132080 118.30380249 2.000000 2.000000
-95.34719849 -812.98150635 141.28239441 2.000000 2.000000
-124.88079834 -725.83032227 108.71690369 2.000000 2.000000
-140.66549683 -713.29248047 99.14019775 2.000000 2.000000
-36.29190063 -770.82812500 143.12820435 2.000000 2.000000
-77.30609894 -793.90710449 144.62060547 1.000000 1.000000
-157.38400269 -764.91137695 72.13189697 2.000000 2.000000
-95.60820007 -874.75921631 96.78800201 2.000000 2.000000
-78.47380066 -847.47448730 110.34429932 2.000000 2.000000
-7.08529997 -823.93762207 110.07129669 2.000000 2.000000
-83.37870026 -829.37841797 115.13909912 2.000000 2.000000
-122.40730286 -689.01647949 115.18949890 2.000000 2.000000
-18.69280052 -867.01428223 114.40579987 2.000000 2.000000
-133.41250610 -819.01702881 107.95290375 2.000000 2.000000
-47.60969925 -749.10491943 23.34480095 1.000000 1.000000
-128.66700745 -725.64257813 102.11139679 1.000000 1.000000
-145.45190430 -748.82281494 92.27040100 2.000000 2.000000
-33.34920120 -864.59680176 118.22350311 2.000000 2.000000
-34.31999969 -765.86791992 139.37040710 2.000000 2.000000
-147.60319519 -711.28900146 95.34380341 2.000000 2.000000
-164.86500549 -711.55718994 79.92359924 2.000000 2.000000
-33.79299927 -862.59637451 120.00930023 2.000000 2.000000
-39.54320145 -768.93560791 145.25390625 2.000000 2.000000
-126.09760284 -681.61901855 113.26850128 2.000000 2.000000
-41.50130081 -932.48620605 64.72830200 2.000000 2.000000
-137.66969299 -777.32812500 119.37960052 2.000000 2.000000
-47.77560043 -867.77832031 116.55879974 2.000000 2.000000
-46.93009949 -747.41351318 8.89490032 1.000000 1.000000
-48.17060089 -802.42541504 153.44340515 2.000000 2.000000
-143.52980042 -753.05401611 89.80740356 2.000000 2.000000
-133.89289856 -738.68438721 99.91560364 2.000000 2.000000
-43.29100037 -739.42480469 -2.15779996 1.000000 1.000000
-128.29519653 -784.72210693 133.84060669 2.000000 2.000000
-44.35660172 -829.42749023 118.57340240 2.000000 2.000000
-41.20159912 -866.74890137 116.45349884 2.000000 2.000000
-77.58450317 -926.30181885 65.57510376 2.000000 2.000000
-164.64930725 -747.64398193 85.16149902 2.000000 2.000000
-119.47019958 -809.69830322 132.30709839 2.000000 2.000000
-110.20469666 -788.05487061 147.28590393 2.000000 2.000000
-44.57189941 -782.90161133 150.38130188 2.000000 2.000000
-50.22990036 -862.49279785 116.13880157 2.000000 2.000000
-79.66490173 -860.32971191 111.84660339 2.000000 2.000000
-141.46580505 -801.44622803 86.67120361 2.000000 2.000000
-34.77590179 -818.21197510 119.32620239 2.000000 2.000000
-159.65249634 -763.10687256 74.09940338 2.000000 2.000000
-161.62139893 -755.06018066 79.88880157 2.000000 2.000000
-23.54750061 -860.81091309 119.29550171 2.000000 2.000000
-132.21820068 -794.81872559 128.74630737 2.000000 2.000000
-103.09580231 -792.97448730 144.02529907 2.000000 2.000000
-22.94129944 -877.48687744 109.01509857 2.000000 2.000000
-154.35499573 -711.41162109 90.00270081 2.000000 2.000000
-137.70500183 -736.44702148 100.09649658 2.000000 2.000000
-136.38270569 -749.63641357 94.05419922 2.000000 2.000000
-132.24690247 -786.94488525 129.88499451 2.000000 2.000000
-85.87000275 -798.37518311 139.89779663 2.000000 2.000000
-53.97060013 -906.91448975 89.96320343 2.000000 2.000000
-155.83630371 -738.68188477 95.38150024 2.000000 2.000000
-119.00520325 -807.54962158 130.70530701 1.000000 1.000000
-43.85599899 -847.50128174 123.58170319 2.000000 2.000000
-94.94309998 -853.61938477 95.65989685 2.000000 2.000000
-97.77410126 -816.58367920 139.61210632 2.000000 2.000000
-149.97720337 -738.83569336 96.69400024 2.000000 2.000000
-89.81909943 -810.41149902 145.22639465 2.000000 2.000000
-33.37160110 -829.36987305 117.34690094 2.000000 2.000000
-134.56790161 -829.99462891 92.88809967 2.000000 2.000000
-139.82479858 -805.86407471 85.98600006 2.000000 2.000000
-36.43510056 -873.01208496 114.08319855 2.000000 2.000000
-44.22760010 -772.50646973 149.78230286 2.000000 2.000000
-110.63950348 -812.04827881 137.33439636 2.000000 2.000000
-35.42300034 -826.64178467 118.03880310 2.000000 2.000000
-30.65740013 -828.57849121 116.57140350 2.000000 2.000000
-113.71130371 -724.61767578 115.37439728 2.000000 2.000000
-102.10820007 -742.70471191 100.32440186 1.000000 1.000000
-143.87579346 -780.21527100 112.31649780 2.000000 2.000000
-94.27220154 -744.02081299 100.08640289 1.000000 1.000000
-148.60650635 -704.45080566 94.01439667 2.000000 2.000000
-143.30000305 -773.22869873 109.51529694 2.000000 2.000000
-58.05870056 -837.15637207 113.78829956 1.000000 1.000000
-38.25930023 -770.86737061 145.06910706 2.000000 2.000000
-68.64399719 -780.66619873 114.98979950 1.000000 1.000000
-117.84929657 -725.39672852 111.99539948 2.000000 2.000000
-123.64099884 -821.29937744 124.99099731 2.000000 2.000000
-100.79029846 -818.92047119 135.33439636 2.000000 2.000000
-137.33189392 -812.95971680 66.88610077 2.000000 2.000000
-126.22329712 -796.90557861 134.54119873 2.000000 2.000000
-158.81809998 -762.53222656 74.91940308 2.000000 2.000000
-95.69570160 -881.96838379 92.67939758 2.000000 2.000000
-139.95019531 -805.56341553 77.15219879 2.000000 2.000000
-131.17280579 -748.56701660 95.52729797 2.000000 2.000000
-46.84960175 -853.64587402 121.58180237 2.000000 2.000000
-13.49050045 -826.67791748 111.75610352 2.000000 2.000000
-65.83679962 -781.00158691 110.72350311 1.000000 1.000000
-144.56199646 -797.85717773 99.32099915 2.000000 2.000000
-30.46080017 -827.66040039 116.48400116 2.000000 2.000000
-50.67129898 -793.82238770 156.40939331 2.000000 2.000000
-160.71189880 -749.83587646 84.73470306 2.000000 2.000000
-75.48840332 -827.73541260 120.93090057 2.000000 2.000000
-130.26759338 -794.05310059 132.32119751 2.000000 2.000000
-107.16950226 -774.78222656 147.10670471 2.000000 2.000000
-139.10940552 -802.22912598 116.57769775 2.000000 2.000000
-64.44149780 -778.14508057 106.24379730 1.000000 1.000000
-141.93899536 -791.28448486 119.66709900 2.000000 2.000000
-131.98440552 -752.02972412 93.74120331 2.000000 2.000000
-25.15660095 -861.85937500 118.60849762 2.000000 2.000000
-139.42039490 -688.62359619 99.77570343 2.000000 2.000000
-27.53199959 -777.62017822 125.39029694 2.000000 2.000000
-52.27389908 -749.98437500 25.17420006 1.000000 1.000000
-97.99749756 -844.00512695 96.16100311 2.000000 2.000000
-53.60100174 -751.45361328 34.90190125 1.000000 1.000000
-136.28280640 -803.48730469 125.52010345 2.000000 2.000000
-132.94200134 -822.78088379 104.30919647 2.000000 2.000000
-107.34110260 -844.30389404 86.52110291 2.000000 2.000000
-139.43029785 -774.24322510 114.97260284 2.000000 2.000000
-135.25979614 -755.95568848 90.74880219 2.000000 2.000000
-108.07730103 -819.30987549 130.95550537 2.000000 2.000000
-111.86029816 -772.03137207 142.95320129 2.000000 2.000000
-133.37080383 -745.43737793 97.02189636 2.000000 2.000000
-105.60320282 -886.11102295 78.15950012 2.000000 2.000000
-95.63259888 -866.87841797 101.05090332 2.000000 2.000000
-53.53620148 -757.07342529 52.96950150 1.000000 1.000000
-133.45089722 -800.05218506 129.27789307 2.000000 2.000000
-119.86720276 -701.13879395 116.01540375 2.000000 2.000000
-144.24769592 -739.69677734 97.67330170 2.000000 2.000000
-119.67649841 -691.40087891 115.81130219 2.000000 2.000000
-73.49330139 -784.88012695 120.02490234 1.000000 1.000000
-30.44589996 -777.02947998 133.36819458 2.000000 2.000000
-162.55360413 -680.31982422 77.53679657 2.000000 2.000000
-53.93740082 -779.35797119 152.91979980 2.000000 2.000000
-126.86969757 -726.92150879 102.48729706 1.000000 1.000000
-86.74449921 -828.28479004 113.84140015 2.000000 2.000000
-130.02169800 -794.42907715 132.26409912 2.000000 2.000000
-125.19110107 -706.86737061 113.40769958 2.000000 2.000000
-77.50920105 -923.81372070 66.97149658 2.000000 2.000000
-56.70819855 -791.15386963 154.75840759 2.000000 2.000000
-122.48629761 -717.23968506 112.62220001 2.000000 2.000000
-39.48030090 -879.75109863 113.00080109 2.000000 2.000000
-50.62120056 -901.53039551 95.11109924 2.000000 2.000000
-113.65329742 -817.51861572 130.35330200 2.000000 2.000000
-54.43519974 -875.70562744 114.91639709 2.000000 2.000000
-58.58319855 -777.07861328 152.89190674 2.000000 2.000000
-111.03430176 -824.85980225 122.97409821 2.000000 2.000000
-68.06819916 -759.99108887 91.04869843 1.000000 1.000000
-59.91469955 -766.70727539 157.15370178 2.000000 2.000000
-91.78559875 -836.57617188 107.42579651 2.000000 2.000000
-143.17379761 -773.41058350 109.68869781 2.000000 2.000000
-91.55280304 -811.98352051 142.90480042 2.000000 2.000000
-56.28139877 -756.93701172 154.91799927 2.000000 2.000000
-67.22109985 -799.07818604 152.13409424 2.000000 2.000000
-142.25650024 -798.60528564 120.58280182 2.000000 2.000000
-80.51069641 -854.47528076 106.00610352 2.000000 2.000000
-46.35150146 -873.96771240 114.81870270 2.000000 2.000000
-136.37629700 -823.44268799 83.44419861 2.000000 2.000000
-142.67849731 -695.59600830 97.86859894 2.000000 2.000000
-31.42370033 -833.99188232 116.44499969 2.000000 2.000000
-113.34609985 -787.24658203 146.61099243 2.000000 2.000000
-45.20100021 -937.42156982 56.70180130 2.000000 2.000000
-138.83360291 -684.13848877 100.57319641 2.000000 2.000000
-61.54140091 -788.33477783 154.22700500 2.000000 2.000000
-138.24879456 -816.64038086 84.81510162 2.000000 2.000000
-115.74579620 -823.62402344 123.64309692 2.000000 2.000000
-96.09130096 -797.27001953 139.34109497 1.000000 1.000000
-58.89540100 -783.45428467 151.93760681 2.000000 2.000000
-104.44319916 -881.07592773 82.47000122 2.000000 2.000000
-26.78160095 -919.50561523 75.27390289 2.000000 2.000000
-57.46829987 -780.25561523 154.64849854 2.000000 2.000000
-76.65319824 -916.49957275 81.24179840 2.000000 2.000000
-29.96269989 -774.57812500 131.87629700 2.000000 2.000000
-150.97810364 -714.98120117 92.28369904 2.000000 2.000000
-157.46740723 -688.37158203 83.51640320 2.000000 2.000000
-125.08969879 -821.93542480 116.80490112 2.000000 2.000000
-100.45110321 -848.78308105 91.18419647 2.000000 2.000000
-165.99960327 -687.29797363 74.70259857 2.000000 2.000000
-68.27310181 -842.32122803 115.15309906 2.000000 2.000000
-55.03590012 -763.26239014 156.90609741 2.000000 2.000000
-120.19529724 -815.98010254 129.33430481 2.000000 2.000000
-46.05720139 -740.97082520 6.42420006 1.000000 1.000000
-22.98570061 -924.20202637 70.93250275 2.000000 2.000000
-27.33650017 -782.99481201 128.31520081 2.000000 2.000000
-112.52570343 -769.56561279 139.98959351 2.000000 2.000000
-138.08909607 -809.61468506 71.03919983 2.000000 2.000000
-45.35300064 -937.62030029 56.45650101 2.000000 2.000000
-87.32469940 -894.96179199 94.02330017 2.000000 2.000000
-67.35910034 -776.33892822 105.57080078 1.000000 1.000000
-128.51820374 -713.29571533 111.40550232 2.000000 2.000000
-87.33799744 -823.39080811 134.64590454 2.000000 2.000000
-92.94249725 -896.78857422 90.91819763 2.000000 2.000000
-148.28219604 -715.40032959 94.02500153 2.000000 2.000000
-64.06109619 -772.69317627 156.11470032 2.000000 2.000000
-42.18330002 -925.31341553 75.27020264 2.000000 2.000000
-113.81169891 -775.97418213 144.46949768 2.000000 2.000000
-128.96980286 -778.74597168 131.06410217 2.000000 2.000000
-146.12390137 -779.86138916 110.63939667 2.000000 2.000000
-88.16600037 -829.64880371 112.43289948 2.000000 2.000000
-146.40280151 -755.57781982 86.77380371 2.000000 2.000000
-138.41400146 -703.20788574 102.15689850 2.000000 2.000000
-123.05829620 -697.57373047 114.81780243 2.000000 2.000000
-39.28730011 -824.60162354 119.18029785 2.000000 2.000000
-124.73580170 -815.59307861 121.80560303 2.000000 2.000000
-158.28190613 -702.99627686 84.71779633 2.000000 2.000000
-37.11679840 -822.83331299 118.91649628 2.000000 2.000000
-48.32830048 -926.38507080 68.94360352 2.000000 2.000000
-136.02850342 -792.57928467 127.22010040 2.000000 2.000000
-129.62399292 -778.48382568 129.72309875 2.000000 2.000000
-48.63489914 -777.46337891 151.59190369 2.000000 2.000000
-143.03300476 -739.36920166 98.15930176 2.000000 2.000000
-26.22710037 -827.66247559 114.60119629 2.000000 2.000000
-144.47929382 -770.97070313 106.11119843 2.000000 2.000000
-107.56829834 -810.44311523 138.97259521 2.000000 2.000000
-136.34269714 -819.79388428 94.60109711 2.000000 2.000000
-99.72709656 -838.70172119 98.29640198 2.000000 2.000000
-37.87379837 -833.54522705 117.29070282 2.000000 2.000000
-41.24710083 -872.94512939 115.23729706 2.000000 2.000000
-98.74579620 -817.66662598 139.87150574 2.000000 2.000000
-167.58689880 -688.33160400 74.03289795 2.000000 2.000000
-27.85680008 -777.20758057 126.45570374 2.000000 2.000000
-48.00839996 -770.95587158 152.33189392 2.000000 2.000000
-165.99459839 -754.35260010 79.13880157 2.000000 2.000000
-22.37490082 -892.23522949 103.05090332 2.000000 2.000000
-72.65180206 -783.77478027 133.74839783 1.000000 1.000000
-103.19529724 -826.46942139 118.40480042 2.000000 2.000000
-59.93920135 -788.76287842 154.31910706 2.000000 2.000000
-98.91979980 -870.56140137 97.22850037 2.000000 2.000000
-96.44589996 -744.81347656 100.43019867 1.000000 1.000000
-113.56269836 -772.68328857 142.07929993 2.000000 2.000000
-44.36579895 -739.96636963 1.83280003 1.000000 1.000000
-161.60470581 -703.55621338 81.31659698 2.000000 2.000000
-90.11470032 -870.77117920 102.22409821 2.000000 2.000000
-140.85400391 -780.81079102 117.13590240 2.000000 2.000000
-60.61999893 -904.12438965 92.11530304 2.000000 2.000000
-50.13370132 -901.50781250 95.32170105 2.000000 2.000000
-40.46780014 -788.87689209 145.48989868 2.000000 2.000000
-133.23049927 -818.05572510 107.67610168 2.000000 2.000000
-110.42199707 -801.28717041 140.02479553 2.000000 2.000000
-86.08429718 -837.43750000 110.59020233 2.000000 2.000000
-85.76979828 -801.21478271 140.44960022 2.000000 2.000000
-116.16369629 -830.46801758 115.53839874 2.000000 2.000000
-60.63579941 -764.74792480 157.35200500 2.000000 2.000000
-156.95350647 -710.89410400 87.88379669 2.000000 2.000000
-92.79509735 -882.18969727 94.53250122 2.000000 2.000000
-91.62660217 -819.93261719 137.78599548 2.000000 2.000000
-47.12590027 -832.12188721 118.27040100 2.000000 2.000000
-138.67779541 -790.39611816 124.60679626 2.000000 2.000000
-91.25260162 -783.65557861 145.17550659 2.000000 2.000000
-77.38700104 -929.49438477 63.30350113 2.000000 2.000000
-128.59500122 -816.98211670 116.67810059 2.000000 2.000000
-118.56320190 -831.49908447 114.05639648 2.000000 2.000000
-108.31860352 -778.20428467 146.73680115 2.000000 2.000000
-68.91570282 -781.88049316 149.71820068 2.000000 2.000000
-52.48080063 -753.99652100 44.12400055 1.000000 1.000000
-74.71759796 -872.31219482 109.02960205 2.000000 2.000000
-75.67949677 -836.84698486 114.79170227 2.000000 2.000000
-70.56390381 -869.97290039 110.67929840 2.000000 2.000000
-44.37319946 -783.75000000 150.70210266 2.000000 2.000000
-173.27769470 -683.52081299 68.65319824 2.000000 2.000000
-81.71189880 -896.78497314 100.06860352 2.000000 2.000000
-113.07589722 -710.64239502 118.13649750 2.000000 2.000000
-90.55699921 -811.39117432 143.58720398 2.000000 2.000000
-65.92559814 -795.10778809 152.53239441 2.000000 2.000000
-34.64709854 -886.51928711 109.97530365 2.000000 2.000000
-44.00920105 -848.56787109 123.43389893 2.000000 2.000000
-66.72779846 -904.91308594 94.71440125 2.000000 2.000000
-77.47720337 -837.25842285 114.22250366 2.000000 2.000000
-166.68919373 -751.17578125 81.16320038 2.000000 2.000000
-58.24629974 -764.84948730 82.30599976 1.000000 1.000000
-86.07150269 -799.67437744 140.01770020 2.000000 2.000000
-159.57220459 -706.20507813 84.66239929 2.000000 2.000000
-84.96050262 -864.91088867 107.63950348 2.000000 2.000000
-143.02920532 -770.70800781 108.75119781 2.000000 2.000000
-94.22689819 -847.74291992 98.30470276 2.000000 2.000000
-52.97010040 -790.08679199 156.94070435 2.000000 2.000000
-56.23059845 -906.93078613 88.55850220 2.000000 2.000000
-124.23960114 -828.96166992 118.72669983 2.000000 2.000000
-145.17460632 -705.50878906 96.07479858 2.000000 2.000000
-168.88780212 -680.58020020 70.84970093 2.000000 2.000000
-90.46109772 -875.98382568 99.91089630 2.000000 2.000000
-32.50550079 -833.86761475 116.37629700 2.000000 2.000000
-83.62120056 -848.37951660 107.30419922 2.000000 2.000000
-134.72309875 -820.19091797 68.11519623 2.000000 2.000000
-102.20369720 -838.92626953 95.84369659 2.000000 2.000000
-139.55360413 -774.91802979 115.35579681 2.000000 2.000000
-102.34680176 -799.94940186 137.73240662 1.000000 1.000000
-56.04190063 -789.18890381 155.72540283 2.000000 2.000000
-86.31569672 -795.19757080 136.39900208 1.000000 1.000000
-66.65930176 -841.71191406 115.57089996 2.000000 2.000000
-89.31340027 -786.68579102 142.93119812 2.000000 2.000000
-137.11090088 -690.70922852 104.90950012 2.000000 2.000000
-170.62719727 -680.27172852 69.87419891 2.000000 2.000000
-111.80609894 -714.23071289 118.43190002 2.000000 2.000000
-114.95729828 -822.20343018 124.49199677 2.000000 2.000000
-32.51129913 -787.71478271 139.22419739 2.000000 2.000000
-79.64070129 -805.09161377 142.24850464 2.000000 2.000000
-168.93850708 -754.40722656 77.19840240 2.000000 2.000000
-42.69820023 -771.17132568 148.28390503 2.000000 2.000000
-82.78070068 -789.41607666 129.01649475 1.000000 1.000000
-77.77010345 -884.42871094 104.39980316 2.000000 2.000000
-120.53579712 -803.51910400 134.87420654 2.000000 2.000000
-145.04010010 -752.90197754 89.55139923 2.000000 2.000000
-36.79740143 -775.58288574 142.69140625 2.000000 2.000000
-96.83540344 -868.98541260 99.85980225 2.000000 2.000000
-37.69020081 -772.66247559 144.77870178 2.000000 2.000000
-41.73360062 -927.39941406 72.13359833 2.000000 2.000000
-148.87699890 -748.36657715 91.22280121 2.000000 2.000000
-50.25569916 -743.87707520 9.30249977 1.000000 1.000000
-62.01810074 -781.38598633 146.14239502 1.000000 1.000000
-152.92660522 -696.87750244 90.31809998 2.000000 2.000000
-47.57979965 -784.14312744 151.67010498 2.000000 2.000000
-85.48960114 -831.30487061 113.28919983 2.000000 2.000000
-21.71260071 -915.22308350 80.20050049 2.000000 2.000000
-135.00849915 -800.12322998 128.04829407 2.000000 2.000000
-49.18640137 -785.73352051 153.38639832 2.000000 2.000000
-119.00019836 -805.89221191 134.87399292 2.000000 2.000000
-145.12770081 -754.72479248 87.85720062 2.000000 2.000000
-121.25109863 -827.51141357 118.87470245 2.000000 2.000000
-115.91480255 -685.37939453 113.31140137 2.000000 2.000000
-97.80950165 -743.71588135 100.77580261 1.000000 1.000000
-106.77760315 -770.97930908 145.56280518 2.000000 2.000000
-127.01219940 -683.81237793 113.44229889 2.000000 2.000000
-56.08000183 -909.66931152 86.79530334 2.000000 2.000000
-152.70280457 -760.68402100 79.06710052 2.000000 2.000000
-140.19279480 -700.57690430 100.20700073 2.000000 2.000000
-60.54079819 -773.87792969 94.91310120 1.000000 1.000000
-53.52140045 -869.26330566 116.47329712 2.000000 2.000000
-23.51000023 -911.61322021 84.85900116 2.000000 2.000000
-130.07389832 -786.10748291 132.16110229 2.000000 2.000000
-36.60459900 -822.98461914 118.57649994 2.000000 2.000000
-100.53199768 -742.91070557 100.77369690 1.000000 1.000000
-134.93879700 -735.65161133 100.62249756 2.000000 2.000000
-100.18730164 -829.58837891 105.58789825 2.000000 2.000000
-140.60249329 -694.54309082 100.16200256 2.000000 2.000000
-122.58760071 -682.33337402 114.35679626 2.000000 2.000000
-106.47669983 -772.60937500 146.54660034 2.000000 2.000000
-92.13410187 -874.11297607 99.81479645 2.000000 2.000000
-26.34160042 -826.84191895 114.46269989 2.000000 2.000000
-124.99449921 -817.03448486 128.79899597 2.000000 2.000000
-167.13310242 -699.73742676 77.36579895 2.000000 2.000000
-130.69839478 -821.83587646 107.58499908 2.000000 2.000000
-123.07109833 -802.59112549 134.30250549 2.000000 2.000000
-75.01270294 -794.51159668 144.58030701 1.000000 1.000000
-131.97489929 -788.39190674 131.14430237 2.000000 2.000000
-80.12409973 -926.50219727 63.85029984 2.000000 2.000000
-134.80760193 -800.36041260 128.08709717 2.000000 2.000000
-137.99259949 -812.67797852 93.72090149 2.000000 2.000000
-88.93389893 -811.26910400 144.75549316 2.000000 2.000000
-122.17199707 -820.14538574 126.63110352 2.000000 2.000000
-27.09099960 -780.84136963 122.63130188 2.000000 2.000000
-57.35990143 -800.00799561 154.03550720 2.000000 2.000000
-80.12339783 -805.49389648 142.13909912 2.000000 2.000000
-70.63950348 -867.47338867 111.78160095 2.000000 2.000000
-140.33160400 -800.18829346 122.23419952 2.000000 2.000000
-131.46969604 -714.18298340 110.87999725 2.000000 2.000000
-33.82199860 -874.82507324 113.04989624 2.000000 2.000000
-154.02070618 -712.86480713 89.84780121 2.000000 2.000000
-97.42189789 -805.22180176 144.05059814 2.000000 2.000000
-158.14869690 -707.01708984 86.59500122 2.000000 2.000000
-140.70089722 -782.75390625 118.71739960 2.000000 2.000000
-47.84700012 -769.35778809 152.20429993 2.000000 2.000000
-104.43219757 -822.12731934 130.74510193 2.000000 2.000000
-45.88570023 -782.56402588 150.56239319 2.000000 2.000000
-89.16069794 -779.32507324 147.73710632 2.000000 2.000000
-120.42720032 -815.08666992 129.35629272 2.000000 2.000000
-42.09980011 -926.23919678 72.22229767 2.000000 2.000000
-139.28799438 -807.20599365 105.03430176 2.000000 2.000000
-135.96350098 -823.57727051 83.03260040 2.000000 2.000000
-26.72380066 -784.89117432 126.29579926 2.000000 2.000000
-65.55449677 -780.29058838 109.61949921 1.000000 1.000000
-99.96549988 -822.53540039 121.09400177 2.000000 2.000000
-54.00669861 -796.54748535 155.62989807 2.000000 2.000000
-96.49490356 -852.71191406 93.78220367 2.000000 2.000000
-152.11349487 -699.64581299 91.20570374 2.000000 2.000000
-112.91069794 -818.48187256 130.80239868 2.000000 2.000000
-55.08219910 -759.93469238 155.84700012 2.000000 2.000000
-20.68250084 -917.98602295 75.77239990 2.000000 2.000000
-30.31520081 -781.18920898 135.51739502 2.000000 2.000000
-54.84420013 -918.06701660 76.77829742 2.000000 2.000000
-107.17729950 -772.84417725 146.32409668 2.000000 2.000000
-136.13070679 -744.57952881 97.18350220 2.000000 2.000000
-136.46670532 -822.00299072 90.03690338 2.000000 2.000000
-35.80770111 -785.34228516 144.40429688 2.000000 2.000000
-54.65000153 -756.78552246 55.68859863 1.000000 1.000000
-142.00070190 -793.21862793 121.07230377 2.000000 2.000000
-163.85479736 -746.14532471 86.86380005 2.000000 2.000000
-80.63009644 -835.35687256 114.11029816 2.000000 2.000000
-98.69200134 -784.10559082 149.05949402 2.000000 2.000000
-72.15789795 -783.78472900 137.26829529 1.000000 1.000000
-123.18150330 -805.58752441 132.70989990 2.000000 2.000000
-158.67700195 -742.85437012 91.64849854 2.000000 2.000000
-25.80529976 -909.78363037 89.42169952 2.000000 2.000000
-57.50809860 -845.82342529 113.74539948 1.000000 1.000000
-65.04589844 -763.08062744 86.77069855 1.000000 1.000000
-29.42110062 -818.18768311 117.31909943 2.000000 2.000000
-45.06560135 -785.26007080 151.13169861 2.000000 2.000000
-48.09260178 -898.20678711 98.85859680 2.000000 2.000000
-126.56719971 -717.88751221 111.00520325 2.000000 2.000000
-64.88249969 -762.38201904 87.94159698 1.000000 1.000000
-23.92340088 -920.19427490 73.47429657 2.000000 2.000000
-142.38499451 -800.42248535 104.92209625 2.000000 2.000000
-141.29589844 -785.59252930 120.00420380 2.000000 2.000000
-89.00009918 -798.74792480 139.86819458 2.000000 2.000000
-104.61250305 -784.83917236 148.00610352 2.000000 2.000000
-107.72080231 -824.50152588 121.63559723 2.000000 2.000000
-63.58150101 -767.93542480 90.66739655 1.000000 1.000000
-141.69940186 -682.19012451 99.22399902 2.000000 2.000000
-45.97169876 -867.11047363 116.65129852 2.000000 2.000000
-148.25129700 -711.22760010 94.91239929 2.000000 2.000000
-75.99530029 -793.35388184 143.67739868 1.000000 1.000000
0.29990000 -892.57720947 91.72339630 2.000000 2.000000
-48.42330170 -782.69702148 151.81719971 2.000000 2.000000
-128.82580566 -700.15277100 112.73880005 2.000000 2.000000
-94.49770355 -818.69909668 137.99989319 2.000000 2.000000
-129.59419250 -811.78271484 116.13819885 2.000000 2.000000
-56.03200150 -754.81408691 46.23759842 1.000000 1.000000
-97.57710266 -846.65588379 94.79149628 2.000000 2.000000
-17.57970047 -822.13519287 112.71769714 2.000000 2.000000
-44.74150085 -739.62512207 1.09679997 1.000000 1.000000
-44.16109848 -925.75482178 73.08360291 2.000000 2.000000
-44.03170013 -898.58831787 103.11049652 2.000000 2.000000
-50.31999969 -823.66522217 119.56220245 2.000000 2.000000
-82.22350311 -808.11877441 140.97169495 2.000000 2.000000
-38.10049820 -779.81469727 144.53840637 2.000000 2.000000
-25.71059990 -871.73437500 112.77549744 2.000000 2.000000
-43.08980179 -787.27618408 150.65699768 2.000000 2.000000
-47.98009872 -784.75262451 152.00289917 2.000000 2.000000
-37.55199814 -871.52722168 114.59880066 2.000000 2.000000
-67.26129913 -847.45782471 115.20899963 2.000000 2.000000
-86.48359680 -751.71942139 96.63179779 1.000000 1.000000
-146.81100464 -710.79071045 95.68840027 2.000000 2.000000
-62.65530014 -791.21771240 155.07859802 2.000000 2.000000
-68.42320251 -873.05468750 111.40760040 2.000000 2.000000
-135.65289307 -814.95141602 100.24819946 2.000000 2.000000
-50.98529816 -874.89038086 114.95790100 2.000000 2.000000
-36.55899811 -828.58557129 118.51100159 2.000000 2.000000
-66.73539734 -761.39758301 89.45200348 1.000000 1.000000
-122.14170074 -680.14050293 113.40550232 2.000000 2.000000
-160.87130737 -709.41369629 83.71800232 2.000000 2.000000
-144.86799622 -709.29992676 96.47830200 2.000000 2.000000
-30.63949966 -847.94488525 123.96389771 2.000000 2.000000
-152.68029785 -702.49932861 90.94730377 2.000000 2.000000
-39.42300034 -783.65460205 147.55920410 2.000000 2.000000
-108.14939880 -737.68371582 102.11139679 1.000000 1.000000
-101.01809692 -791.37628174 146.38670349 2.000000 2.000000
-99.27839661 -839.94787598 97.55310059 2.000000 2.000000
-30.69129944 -773.14007568 134.13870239 2.000000 2.000000
-51.50410080 -930.41387939 63.21179962 2.000000 2.000000
-166.05560303 -763.88891602 70.44450378 2.000000 2.000000
-43.40309906 -925.76062012 73.66059875 2.000000 2.000000
-146.68609619 -720.82940674 96.31580353 2.000000 2.000000
-104.33689880 -812.19396973 139.97120667 2.000000 2.000000
-73.40850067 -829.00512695 119.24109650 2.000000 2.000000
-30.69919968 -863.66888428 118.48639679 2.000000 2.000000
-98.26349640 -815.12658691 140.04739380 2.000000 2.000000
-38.74860001 -915.80511475 82.09700012 2.000000 2.000000
-97.98850250 -795.75872803 147.57510376 2.000000 2.000000
-128.63780212 -793.56292725 134.36669922 2.000000 2.000000
-48.05799866 -897.17150879 101.52690125 2.000000 2.000000
-100.57360077 -791.84979248 146.31340027 2.000000 2.000000
-66.80819702 -761.05212402 89.94809723 1.000000 1.000000
-57.08800125 -763.12512207 64.00000000 1.000000 1.000000
-112.79460144 -828.01458740 117.68360138 2.000000 2.000000
-150.66969299 -740.47460938 95.30570221 2.000000 2.000000
-113.21040344 -822.95037842 124.33010101 2.000000 2.000000
-86.19450378 -862.31842041 108.27490234 2.000000 2.000000
-29.82859993 -781.24707031 133.41200256 2.000000 2.000000
-145.16610718 -788.54968262 115.51260376 2.000000 2.000000
-29.96549988 -850.59338379 124.16040039 2.000000 2.000000
-143.57870483 -786.54791260 116.37359619 2.000000 2.000000
-125.44090271 -701.92572021 113.51750183 2.000000 2.000000
-152.04859924 -713.30511475 91.70749664 2.000000 2.000000
-129.60960388 -778.00988770 130.11489868 2.000000 2.000000
-108.36550140 -779.18737793 147.80299377 2.000000 2.000000
-90.95790100 -880.52502441 97.76619720 2.000000 2.000000
-40.87850189 -782.28027344 147.78300476 2.000000 2.000000
-135.32000732 -754.81689453 91.19570160 2.000000 2.000000
-137.98030090 -713.19342041 101.20240021 2.000000 2.000000
-134.56219482 -746.28997803 96.39440155 2.000000 2.000000
-126.95639801 -804.83502197 132.23350525 2.000000 2.000000
-99.80809784 -797.58197021 143.39039612 2.000000 2.000000
-68.29640198 -780.21697998 114.20629883 1.000000 1.000000
-56.13370132 -906.63189697 89.36489868 2.000000 2.000000
-43.64899826 -777.58587646 148.13819885 2.000000 2.000000
-38.16510010 -886.11389160 111.72000122 2.000000 2.000000
-121.35420227 -686.46697998 115.31759644 2.000000 2.000000
-119.44059753 -802.11749268 137.77650452 2.000000 2.000000
-173.11749268 -682.74127197 68.50769806 2.000000 2.000000
-134.48680115 -821.37341309 67.79039764 2.000000 2.000000
-25.20929909 -825.68359375 114.25810242 2.000000 2.000000
-25.16189957 -853.98437500 124.99729919 2.000000 2.000000
-102.26429749 -881.38470459 84.58969879 2.000000 2.000000
-45.31069946 -918.72479248 81.80690002 2.000000 2.000000
-105.59369659 -883.96679688 80.26069641 2.000000 2.000000
-130.95829773 -791.24011230 130.82110596 2.000000 2.000000
-51.60020065 -804.53277588 152.04600525 2.000000 2.000000
-53.00109863 -751.47308350 36.12979889 1.000000 1.000000
-146.87809753 -753.81591797 88.00240326 2.000000 2.000000
-25.04360008 -827.69110107 114.28739929 2.000000 2.000000
-38.42969894 -851.60821533 122.31620026 2.000000 2.000000
-56.15589905 -778.79132080 155.60290527 2.000000 2.000000
-41.47010040 -882.61688232 114.37390137 2.000000 2.000000
-110.86009979 -802.01782227 140.08850098 2.000000 2.000000
-143.26519775 -798.95227051 115.56289673 2.000000 2.000000
-152.07119751 -703.49908447 91.74089813 2.000000 2.000000
-23.88290024 -829.70050049 113.98300171 2.000000 2.000000
-120.46720123 -820.54797363 126.71299744 2.000000 2.000000
-105.79589844 -813.13110352 138.12930298 2.000000 2.000000
-108.33820343 -778.12957764 146.71440125 2.000000 2.000000
-57.33119965 -865.32843018 111.31030273 1.000000 1.000000
-22.35770035 -873.22302246 111.17700195 2.000000 2.000000
-116.36949921 -725.68060303 112.93949890 2.000000 2.000000
-163.96020508 -688.80871582 76.87149811 2.000000 2.000000
-62.61230087 -767.22778320 157.08779907 2.000000 2.000000
-59.68920135 -909.12078857 86.40470123 2.000000 2.000000
-126.38339996 -824.19580078 116.03810120 2.000000 2.000000
-140.84840393 -771.15087891 110.98909760 2.000000 2.000000
-119.73770142 -709.53491211 116.21929932 2.000000 2.000000
-6.28399992 -877.93591309 104.06189728 2.000000 2.000000
-79.59329987 -785.62182617 124.29280090 1.000000 1.000000
-134.41020203 -810.13629150 113.18489838 2.000000 2.000000
-151.85299683 -740.01171875 95.21990204 2.000000 2.000000
-139.08500671 -691.12738037 101.48529816 2.000000 2.000000
-36.05690002 -767.08032227 141.23669434 2.000000 2.000000
-130.21330261 -794.28417969 132.34230042 2.000000 2.000000
-82.75579834 -830.33068848 115.27790070 2.000000 2.000000
-33.04290009 -890.71447754 110.64939880 2.000000 2.000000
-92.82189941 -810.01440430 143.83740234 2.000000 2.000000
-59.91899872 -802.40722656 108.92579651 1.000000 1.000000
-123.17539978 -805.14099121 132.01310730 2.000000 2.000000
-126.95999908 -719.81372070 110.23940277 2.000000 2.000000
