-129.62449646 -793.58239746 19.07369995 2.000000 2.000000
-120.31259918 -793.18591309 118.86519623 2.000000 2.000000
-50.02909851 -844.51928711 94.45349884 2.000000 2.000000
-147.77659607 -749.25347900 78.19049835 2.000000 2.000000
-171.07400513 -757.35357666 63.52949905 2.000000 2.000000
-28.72960091 -902.36108398 69.26409912 2.000000 2.000000
-69.20850372 -907.91937256 41.82970047 2.000000 2.000000
-77.34929657 -831.58239746 140.53259277 2.000000 2.000000
-85.17400360 -861.55657959 97.72830200 2.000000 2.000000
-130.86729431 -829.27197266 58.78939819 2.000000 2.000000
-138.70019531 -803.90948486 54.34510040 2.000000 2.000000
-133.86120605 -808.01757813 42.39070129 2.000000 2.000000
-73.94529724 -875.70117188 91.96849823 1.000000 1.000000
-118.84680176 -855.65008545 78.72429657 2.000000 2.000000
-136.02819824 -806.02490234 47.53680038 2.000000 2.000000
-132.30729675 -820.99151611 46.06409836 2.000000 2.000000
-106.88790131 -800.81048584 113.30860138 1.000000 1.000000
-170.38769531 -769.32458496 52.14229965 2.000000 2.000000
-138.60429382 -800.36621094 40.90499878 2.000000 2.000000
-72.95420074 -813.34521484 145.09809875 1.000000 1.000000
-148.05810547 -790.23541260 70.64209747 2.000000 2.000000
-86.40070343 -794.16302490 117.62729645 1.000000 1.000000
-115.09750366 -833.87170410 57.29430008 2.000000 2.000000
-122.90630341 -811.26892090 7.99480009 2.000000 2.000000
-50.41849899 -826.21252441 114.36430359 2.000000 2.000000
-51.50510025 -807.85101318 148.88169861 2.000000 2.000000
-50.10129929 -799.49212646 150.35200500 2.000000 2.000000
-117.45120239 -802.07849121 114.82289886 2.000000 2.000000
-57.59109879 -826.44732666 141.93829346 2.000000 2.000000
-146.80450439 -798.87829590 48.46070099 2.000000 2.000000
-139.26899719 -717.90869141 100.77429962 2.000000 2.000000
-121.46510315 -788.20697021 117.80789948 2.000000 2.000000
-45.58769989 -813.65759277 117.20379639 2.000000 2.000000
-143.87280273 -781.02337646 99.19460297 2.000000 2.000000
-149.78970337 -751.84020996 75.39350128 2.000000 2.000000
-132.79570007 -797.46807861 27.49570084 2.000000 2.000000
-40.75519943 -801.75292969 123.34020233 2.000000 2.000000
-92.74359894 -888.72857666 81.05130005 2.000000 2.000000
-49.15969849 -813.65301514 129.05439758 2.000000 2.000000
-154.32809448 -753.30639648 72.07129669 2.000000 2.000000
-55.53129959 -835.00201416 103.45619965 2.000000 2.000000
-45.15779877 -883.17089844 93.92800140 2.000000 2.000000
-119.54460144 -843.58666992 88.97029877 2.000000 2.000000
-52.72589874 -795.76770020 152.07359314 2.000000 2.000000
-74.50669861 -881.97827148 92.72160339 2.000000 2.000000
-44.85630035 -835.55181885 96.83090210 2.000000 2.000000
-112.59310150 -879.90588379 77.14610291 2.000000 2.000000
-130.02279663 -806.12451172 20.98150063 2.000000 2.000000
-142.36749268 -783.86541748 103.72470093 2.000000 2.000000
-107.53389740 -842.92297363 97.70960236 2.000000 2.000000
-144.11270142 -784.42919922 100.36090088 2.000000 2.000000
-121.23439789 -799.35437012 112.92500305 2.000000 2.000000
-132.94419861 -820.87188721 58.47760010 2.000000 2.000000
-68.23770142 -803.75592041 153.17779541 2.000000 2.000000
-26.44350052 -905.93750000 64.83460236 2.000000 2.000000
-78.57759857 -894.14208984 71.57879639 1.000000 1.000000
-126.96170044 -826.35662842 99.46710205 2.000000 2.000000
-74.64019775 -795.30603027 102.82710266 1.000000 1.000000
-151.23899841 -781.66711426 50.11050034 2.000000 2.000000
-42.91550064 -787.25292969 148.59519958 2.000000 2.000000
-138.07620239 -802.91131592 55.06520081 2.000000 2.000000
-42.67229843 -807.28338623 119.31009674 2.000000 2.000000
-33.91059875 -900.99688721 71.78150177 2.000000 2.000000
-42.94110107 -805.70837402 127.63369751 2.000000 2.000000
-49.09149933 -884.78448486 90.57360077 2.000000 2.000000
-134.30009460 -816.00952148 35.79629898 2.000000 2.000000
-134.58979797 -702.18530273 105.91809845 2.000000 2.000000
-83.76010132 -921.53601074 8.61699963 2.000000 2.000000
-60.18170166 -907.67797852 40.35990143 2.000000 2.000000
-128.38420105 -797.12231445 18.30669975 2.000000 2.000000
-69.99310303 -841.47387695 104.41829681 2.000000 2.000000
-134.14050293 -803.50646973 36.69440079 2.000000 2.000000
-146.59950256 -798.65942383 48.04570007 2.000000 2.000000
-119.43000031 -878.73242188 68.67919922 2.000000 2.000000
-88.42520142 -883.07318115 93.78299713 2.000000 2.000000
-108.15229797 -826.92138672 107.00620270 2.000000 2.000000
-56.20220184 -909.48779297 30.41650009 2.000000 2.000000
-174.76690674 -699.26501465 69.29440308 2.000000 2.000000
-91.87349701 -844.13647461 108.73410034 2.000000 2.000000
-62.75880051 -898.17242432 86.59760284 2.000000 2.000000
-107.00229645 -827.85357666 107.19680023 2.000000 2.000000
-131.35380554 -878.74298096 54.48040009 2.000000 2.000000
-150.18870544 -702.75952148 92.30059814 2.000000 2.000000
-86.74030304 -912.38098145 29.36989975 2.000000 2.000000
-126.53469849 -828.03210449 65.51760101 2.000000 2.000000
-48.79169846 -810.48602295 135.20790100 2.000000 2.000000
-145.16940308 -773.18750000 96.67389679 2.000000 2.000000
-139.40080261 -798.77917480 39.56869888 2.000000 2.000000
-117.18229675 -814.69030762 114.40329742 2.000000 2.000000
-56.69290161 -908.43768311 35.56560135 2.000000 2.000000
-67.91870117 -840.67138672 104.49810028 2.000000 2.000000
-143.04469299 -769.91992188 100.26010132 2.000000 2.000000
-135.09240723 -815.25610352 92.95839691 2.000000 2.000000
-118.93289948 -878.14721680 72.89779663 2.000000 2.000000
-145.05639648 -770.26318359 96.37619781 2.000000 2.000000
-139.72340393 -801.77777100 53.34640121 2.000000 2.000000
-46.29909897 -912.68408203 18.56789970 2.000000 2.000000
-72.58489990 -767.80511475 86.08630371 1.000000 1.000000
-126.81449890 -845.17742920 79.09880066 2.000000 2.000000
-135.86470032 -814.15087891 66.30780029 2.000000 2.000000
-139.85169983 -754.61767578 81.05120087 2.000000 2.000000
-87.12850189 -851.16021729 101.01399994 2.000000 2.000000
-48.69369888 -746.61688232 15.11789989 1.000000 1.000000
-135.20579529 -819.19122314 99.48570251 2.000000 2.000000
-138.27400208 -747.44757080 86.01869965 2.000000 2.000000
-95.59020233 -856.56848145 96.66770172 2.000000 2.000000
-58.32030106 -764.26812744 53.29990005 1.000000 1.000000
-133.29130554 -713.75830078 105.01010132 2.000000 2.000000
-90.04889679 -798.40319824 122.20690155 1.000000 1.000000
-145.48660278 -774.29968262 95.89540100 2.000000 2.000000
-86.89689636 -847.47998047 106.30169678 2.000000 2.000000
-47.16130066 -911.39837646 21.25340080 2.000000 2.000000
-135.67900085 -810.17352295 58.23239899 2.000000 2.000000
-68.47489929 -837.27728271 132.79069519 2.000000 2.000000
-71.33329773 -872.27911377 102.62470245 2.000000 2.000000
-90.49210358 -796.35107422 120.48970032 1.000000 1.000000
-31.13120079 -847.05627441 81.45559692 2.000000 2.000000
-71.63159943 -774.37841797 87.83570099 1.000000 1.000000
-128.17610168 -799.90722656 15.35729980 2.000000 2.000000
-64.77369690 -812.09582520 148.97509766 2.000000 2.000000
-158.41470337 -722.19488525 78.33100128 2.000000 2.000000
-52.76990128 -908.05047607 38.05020142 2.000000 2.000000
-129.19979858 -734.59777832 103.54979706 2.000000 2.000000
-76.88179779 -766.86267090 86.98100281 1.000000 1.000000
-134.86639404 -809.08349609 83.81230164 1.000000 1.000000
-50.97890091 -904.61437988 76.54759979 2.000000 2.000000
-143.30569458 -768.96032715 100.48889923 2.000000 2.000000
-74.62719727 -848.20971680 99.59500122 1.000000 1.000000
-160.54429626 -769.22052002 59.14770126 2.000000 2.000000
-45.44110107 -812.58361816 115.91300201 2.000000 2.000000
-49.73120117 -747.36889648 16.67700005 1.000000 1.000000
-68.29859924 -840.67828369 104.22699738 2.000000 2.000000
-124.84010315 -833.78991699 86.85009766 2.000000 2.000000
-67.12180328 -772.85308838 85.12629700 1.000000 1.000000
-131.48890686 -815.07519531 100.28810120 2.000000 2.000000
-39.73870087 -884.59411621 95.34570313 2.000000 2.000000
-51.61980057 -882.00708008 100.74690247 2.000000 2.000000
-135.91920471 -811.59362793 62.97090149 2.000000 2.000000
-150.94250488 -778.59399414 49.22769928 2.000000 2.000000
-62.89519882 -877.98498535 96.20980072 2.000000 2.000000
-113.01419830 -833.79467773 66.54340363 2.000000 2.000000
-70.57199860 -876.58361816 94.06300354 2.000000 2.000000
-102.25099945 -919.88922119 12.35900021 2.000000 2.000000
-136.52810669 -708.35748291 103.87449646 2.000000 2.000000
-45.06190109 -809.26379395 99.05319977 2.000000 2.000000
-132.97419739 -807.59271240 39.42959976 2.000000 2.000000
-45.61140060 -913.20831299 17.37439919 2.000000 2.000000
-148.85279846 -784.05297852 61.28049850 2.000000 2.000000
-49.12939835 -747.09722900 15.74510002 1.000000 1.000000
-124.30549622 -808.37951660 9.06180000 2.000000 2.000000
-152.50509644 -764.74298096 67.29070282 2.000000 2.000000
-43.03049850 -743.68530273 -0.33239999 1.000000 1.000000
-74.18060303 -848.53967285 98.99900055 1.000000 1.000000
-96.29180145 -883.88751221 84.09249878 2.000000 2.000000
-153.91709900 -768.53369141 63.17179871 2.000000 2.000000
-144.58430481 -796.95251465 44.27099991 2.000000 2.000000
-69.88030243 -779.61950684 94.11789703 1.000000 1.000000
-105.66220093 -800.16192627 115.97489929 1.000000 1.000000
-148.18879700 -789.03662109 61.09989929 2.000000 2.000000
-48.03110123 -796.77502441 150.02980042 2.000000 2.000000
-41.01309967 -801.94860840 124.20050049 2.000000 2.000000
-58.16849899 -822.15478516 138.25579834 2.000000 2.000000
-135.09779358 -814.91137695 58.10350037 2.000000 2.000000
-129.51409912 -816.38159180 104.97879791 2.000000 2.000000
-144.03669739 -797.64752197 42.11610031 2.000000 2.000000
-133.36749268 -790.37408447 21.21800041 2.000000 2.000000
-129.05949402 -812.21118164 21.90329933 2.000000 2.000000
-21.09950066 -906.00561523 64.55190277 2.000000 2.000000
-53.50230026 -844.63287354 97.05470276 2.000000 2.000000
-169.59309387 -751.77777100 69.69680023 2.000000 2.000000
-97.76409912 -887.29998779 79.98090363 2.000000 2.000000
-163.77360535 -697.01000977 79.66079712 2.000000 2.000000
-41.33440018 -804.64929199 120.10089874 2.000000 2.000000
-144.02349854 -774.42626953 99.65869904 2.000000 2.000000
-68.93530273 -776.43487549 90.60269928 1.000000 1.000000
-119.95169830 -884.73358154 57.39080048 2.000000 2.000000
-122.11029816 -708.59411621 113.19309998 2.000000 2.000000
-132.98519897 -820.57537842 56.75469971 2.000000 2.000000
-168.68310547 -771.72027588 52.55469894 2.000000 2.000000
-149.06500244 -775.10272217 60.06499863 2.000000 2.000000
-158.50390625 -714.08892822 82.05989838 2.000000 2.000000
-139.34700012 -712.22387695 101.72930145 2.000000 2.000000
-142.81509399 -770.70831299 102.47299957 2.000000 2.000000
-128.66979980 -830.94488525 56.77899933 2.000000 2.000000
-151.56599426 -794.10687256 53.34220123 2.000000 2.000000
-133.92539978 -818.28497314 47.88399887 2.000000 2.000000
-134.48539734 -815.61431885 89.54560089 2.000000 2.000000
-142.64840698 -760.59588623 76.65019989 2.000000 2.000000
-139.28570557 -785.79541016 110.20780182 2.000000 2.000000
-84.97579956 -905.24377441 51.86859894 2.000000 2.000000
-147.93370056 -791.20562744 68.99530029 2.000000 2.000000
-134.10290527 -799.63757324 32.21080017 2.000000 2.000000
-34.55170059 -895.73358154 77.69450378 2.000000 2.000000
-72.30130005 -777.98992920 95.37660217 1.000000 1.000000
-63.80690002 -891.17877197 88.51899719 2.000000 2.000000
-131.94799805 -817.57800293 42.47209930 2.000000 2.000000
-101.49980164 -864.28887939 90.54689789 2.000000 2.000000
-167.95820618 -708.15209961 72.50479889 2.000000 2.000000
-134.51750183 -805.79089355 39.09450150 2.000000 2.000000
-61.91329956 -832.16247559 139.16789246 2.000000 2.000000
-125.14230347 -829.61108398 94.11479950 2.000000 2.000000
-44.61309814 -912.64929199 17.87669945 2.000000 2.000000
-136.89379883 -805.55212402 100.18609619 2.000000 2.000000
-76.25759888 -918.01171875 18.50629997 2.000000 2.000000
-158.78129578 -768.42517090 60.27790070 2.000000 2.000000
-40.29710007 -890.24072266 84.75509644 2.000000 2.000000
-36.51990128 -896.41168213 76.74310303 2.000000 2.000000
-132.05709839 -820.73321533 45.72389984 2.000000 2.000000
-174.43589783 -695.90557861 68.09819794 2.000000 2.000000
-84.93139648 -791.33227539 114.44619751 1.000000 1.000000
-46.17900085 -912.43041992 42.48360062 2.000000 2.000000
-101.87030029 -917.44647217 15.76000023 2.000000 2.000000
-52.42290115 -838.53088379 99.95580292 2.000000 2.000000
-124.65579987 -720.66479492 109.80670166 2.000000 2.000000
-144.08079529 -764.67211914 98.00360107 2.000000 2.000000
-151.39660645 -795.75067139 51.15280151 2.000000 2.000000
-58.86109924 -764.91558838 55.75820160 1.000000 1.000000
-135.03660583 -811.60791016 45.64590073 2.000000 2.000000
-101.82599640 -882.46728516 82.78589630 2.000000 2.000000
-25.85980034 -900.11889648 73.07530212 2.000000 2.000000
-128.04930115 -806.14160156 13.87779999 2.000000 2.000000
-122.37229919 -835.14477539 88.81479645 2.000000 2.000000
-69.83509827 -827.02807617 141.00450134 2.000000 2.000000
-103.87999725 -915.36541748 20.49629974 2.000000 2.000000
-69.60310364 -779.78637695 90.08029938 1.000000 1.000000
-136.52259827 -797.32080078 110.63569641 2.000000 2.000000
-52.25510025 -811.22412109 138.24110413 2.000000 2.000000
-69.18499756 -777.85028076 85.40869904 1.000000 1.000000
-148.70799255 -789.27197266 80.28130341 2.000000 2.000000
-44.88729858 -893.42919922 81.75800323 2.000000 2.000000
-151.57679749 -781.35009766 51.36380005 2.000000 2.000000
-53.75880051 -838.30682373 101.10050201 2.000000 2.000000
-162.24369812 -758.54968262 65.56620026 2.000000 2.000000
-154.89689636 -720.84552002 82.71440125 2.000000 2.000000
-50.59360123 -810.80877686 143.13560486 2.000000 2.000000
-82.21489716 -787.11822510 111.74310303 1.000000 1.000000
-61.19630051 -835.73657227 135.57620239 2.000000 2.000000
-133.27239990 -816.51660156 31.97030067 2.000000 2.000000
-74.74849701 -815.44421387 103.01149750 1.000000 1.000000
-142.30160522 -700.80541992 102.57469940 2.000000 2.000000
-107.64779663 -916.53601074 19.04310036 2.000000 2.000000
-61.41699982 -909.74798584 33.78730011 2.000000 2.000000
-111.00409698 -860.15270996 85.43280029 2.000000 2.000000
-44.08209991 -912.61840820 17.99799919 2.000000 2.000000
-46.49539948 -747.30517578 13.88440037 1.000000 1.000000
-28.75359917 -897.58557129 75.60179901 2.000000 2.000000
-51.68899918 -811.11462402 143.27020264 2.000000 2.000000
-99.49410248 -915.75042725 18.75070000 2.000000 2.000000
-156.24450684 -768.53039551 61.44729996 2.000000 2.000000
-79.14240265 -894.26947021 70.92510223 1.000000 1.000000
-123.60179901 -827.75817871 76.01260376 2.000000 2.000000
-105.17600250 -800.58947754 116.40090179 1.000000 1.000000
-135.36289978 -813.25378418 60.91830063 2.000000 2.000000
-109.05400085 -836.62957764 50.20299911 2.000000 2.000000
-60.21049881 -897.04852295 84.97429657 2.000000 2.000000
-165.84399414 -768.58367920 57.54330063 2.000000 2.000000
-129.77499390 -821.03637695 38.99620056 2.000000 2.000000
-47.05540085 -813.91333008 121.40270233 2.000000 2.000000
-127.12090302 -814.78558350 19.26160049 2.000000 2.000000
-125.07060242 -853.06140137 74.11119843 2.000000 2.000000
-61.00030136 -849.98632813 100.11479950 2.000000 2.000000
-116.69010162 -803.17156982 116.75749969 2.000000 2.000000
-48.17359924 -907.45947266 73.27349854 2.000000 2.000000
-118.01049805 -833.38781738 55.32910156 2.000000 2.000000
-94.34829712 -884.19396973 84.68650055 2.000000 2.000000
-43.85779953 -911.59729004 20.67849922 2.000000 2.000000
-46.28160095 -809.11187744 94.73100281 2.000000 2.000000
-84.36959839 -901.60510254 58.73659897 2.000000 2.000000
-149.44729614 -772.59161377 58.63539886 2.000000 2.000000
-58.94499969 -879.83581543 95.40329742 2.000000 2.000000
-180.34049988 -689.91320801 63.08200073 2.000000 2.000000
-133.00650024 -850.05603027 69.55680084 2.000000 2.000000
-147.51049805 -791.11059570 72.46269989 2.000000 2.000000
-88.67620087 -911.70849609 29.83769989 2.000000 2.000000
-56.20650101 -894.29089355 84.99250031 2.000000 2.000000
-91.78140259 -803.03942871 124.10389709 1.000000 1.000000
-163.80259705 -759.31372070 63.57830048 2.000000 2.000000
-48.38600159 -818.25311279 121.62709808 2.000000 2.000000
-141.40280151 -815.68188477 71.51499939 2.000000 2.000000
-69.11139679 -841.13592529 104.00509644 2.000000 2.000000
-76.35379791 -837.24011230 100.92600250 1.000000 1.000000
-61.87220001 -805.43127441 151.18400574 2.000000 2.000000
-130.41639709 -818.60662842 27.76300049 2.000000 2.000000
-49.85540009 -910.79968262 23.13990021 2.000000 2.000000
-169.10220337 -692.63708496 73.78620148 2.000000 2.000000
-83.26979828 -788.61248779 113.09570313 1.000000 1.000000
-148.78269958 -785.79241943 75.34780121 2.000000 2.000000
-140.36860657 -805.12109375 91.26840210 2.000000 2.000000
-112.24849701 -878.48858643 79.22859955 2.000000 2.000000
-149.08030701 -751.65118408 75.94409943 2.000000 2.000000
-126.89900208 -825.41149902 78.15100098 2.000000 2.000000
-124.64450073 -726.20898438 108.79049683 2.000000 2.000000
-68.03240204 -841.21130371 129.60020447 2.000000 2.000000
-47.03649902 -811.99291992 126.17289734 2.000000 2.000000
-47.44430161 -818.41979980 115.47370148 2.000000 2.000000
-139.21139526 -784.96240234 111.09760284 2.000000 2.000000
-53.32220078 -759.14587402 35.11790085 1.000000 1.000000
-51.34230042 -810.20611572 148.45750427 2.000000 2.000000
-56.43170166 -842.47460938 99.76580048 2.000000 2.000000
-133.65519714 -817.09271240 59.25680161 2.000000 2.000000
-155.64430237 -713.42877197 83.99189758 2.000000 2.000000
-133.65809631 -819.39697266 31.67959976 2.000000 2.000000
-140.09689331 -740.16827393 87.53220367 2.000000 2.000000
-132.76679993 -817.16809082 38.98189926 2.000000 2.000000
-134.10639954 -827.33532715 61.12810135 2.000000 2.000000
-96.90239716 -888.63348389 78.76029968 2.000000 2.000000
-47.64220047 -898.56878662 79.34750366 2.000000 2.000000
-95.97409821 -887.96887207 80.09329987 2.000000 2.000000
-55.12889862 -904.68920898 79.62229919 2.000000 2.000000
-106.03910065 -849.42358398 93.46080017 2.000000 2.000000
-123.06620026 -789.84027100 118.21459961 2.000000 2.000000
-60.93000031 -911.83868408 25.63439941 2.000000 2.000000
-109.05670166 -826.39331055 112.39170074 2.000000 2.000000
-51.10800171 -878.91369629 101.77680206 2.000000 2.000000
-149.75320435 -779.53912354 74.40940094 2.000000 2.000000
-122.44830322 -721.43432617 113.29340363 2.000000 2.000000
-102.61699677 -877.18518066 89.22650146 2.000000 2.000000
-66.20549774 -771.87670898 82.44599915 1.000000 1.000000
-153.31849670 -746.17797852 77.99960327 2.000000 2.000000
-134.83830261 -815.20721436 59.53850174 2.000000 2.000000
-66.76540375 -844.55651855 126.09149933 2.000000 2.000000
-115.79959869 -817.01928711 109.20310211 2.000000 2.000000
-132.17970276 -815.17407227 41.95090103 2.000000 2.000000
-130.23249817 -804.41168213 21.81830025 2.000000 2.000000
-89.90589905 -908.53082275 51.57080078 2.000000 2.000000
-39.07099915 -799.75769043 116.80930328 2.000000 2.000000
-147.62780762 -788.42962646 63.23709869 2.000000 2.000000
-136.97239685 -806.07360840 52.18220139 2.000000 2.000000
-71.54209900 -832.73059082 137.16180420 2.000000 2.000000
-79.85260010 -820.03851318 144.23330688 2.000000 2.000000
-96.92189789 -845.90698242 101.11820221 2.000000 2.000000
-63.78979874 -891.37731934 88.40519714 2.000000 2.000000
-147.33929443 -763.52612305 71.03540039 2.000000 2.000000
-73.65059662 -805.88562012 154.54260254 2.000000 2.000000
-113.74870300 -744.32171631 92.60820007 1.000000 1.000000
-139.62980652 -806.23431396 91.31300354 2.000000 2.000000
-142.02929688 -810.42468262 74.17559814 2.000000 2.000000
-67.38130188 -844.25238037 103.74739838 2.000000 2.000000
-96.68540192 -914.47058105 21.73710060 2.000000 2.000000
-63.09529877 -907.26202393 43.67610168 2.000000 2.000000
-155.84579468 -714.73358154 83.93009949 2.000000 2.000000
-36.77009964 -905.81457520 69.51640320 2.000000 2.000000
-165.57000732 -772.07922363 55.49560165 2.000000 2.000000
-90.21589661 -799.33831787 120.90830231 1.000000 1.000000
-149.48039246 -799.66192627 59.61169815 2.000000 2.000000
-126.13870239 -701.05139160 110.92220306 2.000000 2.000000
-68.35520172 -842.63549805 104.45659637 2.000000 2.000000
-63.70370102 -763.04321289 58.95589828 1.000000 1.000000
-73.53589630 -768.32281494 85.84429932 1.000000 1.000000
-48.66260147 -913.16802979 17.47150040 2.000000 2.000000
-164.30650330 -706.95397949 78.21459961 2.000000 2.000000
-139.87399292 -802.14892578 54.27909851 2.000000 2.000000
-72.39929962 -767.49102783 86.79579926 1.000000 1.000000
-149.00939941 -785.69592285 71.12079620 2.000000 2.000000
-78.81620026 -881.81628418 85.43370056 1.000000 1.000000
-82.38390350 -856.11230469 100.43599701 2.000000 2.000000
-104.31670380 -890.53979492 68.17440033 2.000000 2.000000
-73.36969757 -818.18090820 146.23480225 1.000000 1.000000
-166.66409302 -761.26599121 61.07089996 2.000000 2.000000
-42.60469818 -803.26220703 102.83249664 2.000000 2.000000
-22.75670052 -905.81268311 64.93060303 2.000000 2.000000
-145.10530090 -760.03228760 75.21240234 2.000000 2.000000
-143.40390015 -766.11047363 99.33920288 2.000000 2.000000
-138.19689941 -801.75048828 42.52899933 2.000000 2.000000
-66.27220154 -770.54980469 81.37760162 1.000000 1.000000
-46.98910141 -808.95147705 135.77009583 2.000000 2.000000
-38.93460083 -906.44177246 70.16059875 2.000000 2.000000
-40.61930084 -895.80627441 78.70269775 2.000000 2.000000
-135.82279968 -819.61059570 53.21210098 2.000000 2.000000
-65.33889771 -768.68298340 76.93730164 1.000000 1.000000
-134.41119385 -813.58898926 56.68560028 2.000000 2.000000
-39.61560059 -800.39001465 117.13079834 2.000000 2.000000
-94.29340363 -809.28308105 134.41239929 2.000000 2.000000
-137.23669434 -804.49108887 47.62630081 2.000000 2.000000
-164.69070435 -769.17407227 57.65660095 2.000000 2.000000
-53.44150162 -799.93011475 151.22390747 2.000000 2.000000
-171.14289856 -699.57122803 71.91380310 2.000000 2.000000
-167.47509766 -772.75048828 48.23120117 2.000000 2.000000
-157.43130493 -765.35070801 63.59510040 2.000000 2.000000
-107.68550110 -842.94018555 97.01999664 2.000000 2.000000
-146.16130066 -744.79742432 81.30629730 2.000000 2.000000
-124.38880157 -826.72680664 104.69550323 2.000000 2.000000
-45.99110031 -809.09338379 133.03959656 2.000000 2.000000
-133.66709900 -815.50891113 34.00669861 2.000000 2.000000
-109.45020294 -837.80358887 45.27259827 2.000000 2.000000
-123.26719666 -714.91998291 111.77529907 2.000000 2.000000
-129.74440002 -708.77252197 108.65190125 2.000000 2.000000
-63.71369934 -846.77722168 101.60479736 2.000000 2.000000
-66.92559814 -844.42382813 126.74900055 2.000000 2.000000
-122.50900269 -852.11737061 76.62920380 2.000000 2.000000
-175.46130371 -704.60247803 64.41629791 2.000000 2.000000
-142.63510132 -769.03857422 102.00990295 2.000000 2.000000
-57.75970078 -888.26861572 88.39820099 2.000000 2.000000
-134.96009827 -813.71661377 60.45909882 2.000000 2.000000
-159.20939636 -770.61212158 58.16619873 2.000000 2.000000
-122.34829712 -797.21697998 3.83780003 2.000000 2.000000
-54.73260117 -759.40039063 32.15250015 1.000000 1.000000
-140.27220154 -806.35607910 81.57340240 2.000000 2.000000
-142.47270203 -799.02581787 94.05010223 2.000000 2.000000
-158.20390320 -749.78497314 73.18389893 2.000000 2.000000
-139.70779419 -789.72729492 107.18740082 2.000000 2.000000
-52.64179993 -826.32598877 116.20760345 2.000000 2.000000
-166.10949707 -767.60101318 58.48239899 2.000000 2.000000
-87.53859711 -882.46740723 90.15869904 2.000000 2.000000
-138.63850403 -804.52197266 47.15000153 2.000000 2.000000
-92.94619751 -886.15722656 83.25070190 2.000000 2.000000
-108.88639832 -839.93011475 82.10469818 2.000000 2.000000
-43.06629944 -808.20977783 117.01969910 2.000000 2.000000
-146.21949768 -794.29791260 40.71099854 2.000000 2.000000
-74.15989685 -825.95690918 143.02789307 2.000000 2.000000
-134.39270020 -815.31518555 57.49280167 2.000000 2.000000
-68.36859894 -831.83337402 138.19540405 2.000000 2.000000
-81.07209778 -817.03149414 145.81089783 2.000000 2.000000
-146.84579468 -793.29272461 71.47640228 2.000000 2.000000
-76.07530212 -826.82391357 143.19880676 2.000000 2.000000
-53.88489914 -810.51672363 148.49679565 2.000000 2.000000
-150.46299744 -769.15942383 46.54389954 2.000000 2.000000
-109.22889709 -836.57098389 50.28490067 2.000000 2.000000
-136.23320007 -813.18591309 65.20870209 2.000000 2.000000
-148.16900635 -786.52667236 67.38929749 2.000000 2.000000
-44.92440033 -812.07849121 113.69689941 2.000000 2.000000
-115.05480194 -855.46112061 82.08779907 2.000000 2.000000
-148.94340515 -787.37707520 63.43239975 2.000000 2.000000
-134.44599915 -790.30480957 23.77179909 2.000000 2.000000
-71.39450073 -767.77227783 85.60900116 1.000000 1.000000
-21.54999924 -903.38787842 68.80020142 2.000000 2.000000
-156.48739624 -769.74487305 60.37310028 2.000000 2.000000
-46.66830063 -814.78027344 120.63249969 2.000000 2.000000
-57.79000092 -809.53851318 147.58050537 2.000000 2.000000
-100.87300110 -886.02862549 78.78910065 2.000000 2.000000
-128.68130493 -717.43267822 107.67099762 2.000000 2.000000
-130.03320313 -801.78021240 21.54949951 2.000000 2.000000
-71.78459930 -829.87158203 139.94940186 2.000000 2.000000
-118.76850128 -846.81707764 84.05879974 2.000000 2.000000
-40.67929840 -800.72058105 111.01529694 2.000000 2.000000
-132.44439697 -812.55957031 31.92189980 2.000000 2.000000
-68.53299713 -806.28991699 149.79029846 2.000000 2.000000
-29.49329948 -907.95031738 64.18930054 2.000000 2.000000
-46.05830002 -815.14617920 100.94139862 2.000000 2.000000
-68.59049988 -927.14379883 12.36509991 2.000000 2.000000
-68.24649811 -846.85241699 103.56700134 2.000000 2.000000
-144.25129700 -800.74707031 50.39849854 2.000000 2.000000
-110.46340179 -884.37072754 69.46360016 2.000000 2.000000
-173.78239441 -693.40527344 68.80599976 2.000000 2.000000
-133.39039612 -818.70397949 80.24700165 2.000000 2.000000
-48.03860092 -822.29217529 106.20379639 2.000000 2.000000
-158.80630493 -770.14752197 58.52289963 2.000000 2.000000
-138.32550049 -748.46832275 85.61669922 2.000000 2.000000
-131.78950500 -827.33837891 64.08059692 2.000000 2.000000
-92.58399963 -914.17187500 23.43370056 2.000000 2.000000
-99.98439789 -850.44207764 96.76010132 2.000000 2.000000
-65.19629669 -769.90600586 78.70490265 1.000000 1.000000
-88.25499725 -909.86730957 33.47930145 2.000000 2.000000
-154.40939331 -748.57788086 75.69550323 2.000000 2.000000
-52.76039886 -811.28527832 141.86019897 2.000000 2.000000
-118.12889862 -836.48278809 87.37220001 2.000000 2.000000
-47.66180038 -750.45190430 12.66950035 1.000000 1.000000
-88.96579742 -894.46630859 77.54620361 2.000000 2.000000
-75.42929840 -820.28448486 103.02330017 1.000000 1.000000
-44.96699905 -902.19128418 76.27719879 2.000000 2.000000
-137.68350220 -805.50671387 48.80630112 2.000000 2.000000
-74.88069916 -911.98101807 39.02330017 2.000000 2.000000
-60.73249817 -765.25610352 62.39910126 1.000000 1.000000
-128.62840271 -876.55108643 71.47789764 2.000000 2.000000
-83.56320190 -808.28582764 135.64979553 1.000000 1.000000
-126.17230225 -808.14282227 103.49579620 1.000000 1.000000
-66.39209747 -843.69873047 126.81089783 2.000000 2.000000
-100.66149902 -750.39550781 91.85639954 1.000000 1.000000
-50.51919937 -893.20971680 83.27880096 2.000000 2.000000
-50.66839981 -900.78997803 78.52169800 2.000000 2.000000
-158.34230042 -759.56958008 66.75810242 2.000000 2.000000
-93.25849915 -910.34472656 33.20159912 2.000000 2.000000
-69.86679840 -778.24627686 93.08670044 1.000000 1.000000
-121.32589722 -808.92242432 4.17070007 2.000000 2.000000
-34.00930023 -892.00891113 83.65859985 2.000000 2.000000
-89.53700256 -891.55377197 80.24009705 2.000000 2.000000
-75.66130066 -765.97637939 88.13150024 1.000000 1.000000
-134.67320251 -789.96417236 22.47649956 2.000000 2.000000
-74.65889740 -781.82299805 100.46179962 1.000000 1.000000
-132.73959351 -814.50921631 45.40790176 2.000000 2.000000
-136.31779480 -807.17919922 56.97790146 2.000000 2.000000
-105.49649811 -853.86627197 91.97840118 2.000000 2.000000
-117.66670227 -837.87817383 80.31390381 2.000000 2.000000
-105.98889923 -876.89892578 88.34989929 2.000000 2.000000
-134.21789551 -804.77728271 107.95310211 2.000000 2.000000
-138.48489380 -749.68481445 84.72650146 2.000000 2.000000
-129.24130249 -808.41198730 21.01899910 2.000000 2.000000
-121.93090057 -789.24121094 116.78569794 2.000000 2.000000
-20.01020050 -907.09667969 62.88650131 2.000000 2.000000
-64.98349762 -849.96527100 101.57869720 2.000000 2.000000
-148.28919983 -796.57897949 62.29790115 2.000000 2.000000
-51.65729904 -909.00457764 31.08930016 2.000000 2.000000
-131.98129272 -802.48229980 31.09140015 2.000000 2.000000
-135.07580566 -803.31268311 101.84629822 2.000000 2.000000
-130.29060364 -806.10058594 25.23380089 2.000000 2.000000
-140.70449829 -789.44299316 106.17549896 2.000000 2.000000
-122.53780365 -833.57299805 95.90270233 2.000000 2.000000
-169.25199890 -712.51177979 71.28070068 2.000000 2.000000
-150.59539795 -705.80957031 90.75330353 2.000000 2.000000
-165.70550537 -772.81140137 53.97729874 2.000000 2.000000
-145.10560608 -799.51037598 75.84629822 2.000000 2.000000
-94.82969666 -818.64892578 135.95989990 2.000000 2.000000
-136.85670471 -804.80310059 53.85440063 2.000000 2.000000
-120.96600342 -850.45977783 78.72570038 2.000000 2.000000
-86.53109741 -912.58801270 29.09379959 2.000000 2.000000
-134.29589844 -820.18701172 54.64250183 2.000000 2.000000
-74.89689636 -822.22912598 145.05799866 2.000000 2.000000
-135.64199829 -798.49798584 113.01770020 2.000000 2.000000
-68.16190338 -894.11230469 87.54630280 2.000000 2.000000
-133.55709839 -801.79992676 32.43740082 2.000000 2.000000
-136.51229858 -699.12847900 104.57649994 2.000000 2.000000
-130.72779846 -826.90332031 92.98729706 2.000000 2.000000
-101.60079956 -877.31530762 90.09249878 2.000000 2.000000
-66.15979767 -835.31848145 135.24870300 2.000000 2.000000
-97.00949860 -913.05200195 24.76119995 2.000000 2.000000
-91.01580048 -914.92547607 22.85729980 2.000000 2.000000
-53.77489853 -807.25128174 149.00570679 2.000000 2.000000
-130.70429993 -819.09899902 43.05699921 2.000000 2.000000
-137.57519531 -754.03918457 83.47869873 2.000000 2.000000
-128.51910400 -877.20690918 67.38420105 2.000000 2.000000
-30.81739998 -893.30810547 82.92310333 2.000000 2.000000
-147.71009827 -749.26898193 77.94080353 2.000000 2.000000
-66.69670105 -909.68090820 36.62850189 2.000000 2.000000
-136.13400269 -803.89672852 40.63750076 2.000000 2.000000
-127.63520050 -802.92962646 12.67660046 2.000000 2.000000
-70.39900208 -923.29711914 15.35949993 2.000000 2.000000
-61.73540115 -767.71569824 66.47139740 1.000000 1.000000
-127.47280121 -822.96301270 100.24430084 2.000000 2.000000
-139.56460571 -806.11437988 79.58039856 2.000000 2.000000
-113.46810150 -836.82037354 46.75799942 2.000000 2.000000
-151.12640381 -788.23541260 52.94480133 2.000000 2.000000
-175.75689697 -685.28448486 67.49169922 2.000000 2.000000
-120.98509979 -879.31896973 65.67209625 2.000000 2.000000
-146.11169434 -749.16912842 79.38770294 2.000000 2.000000
-60.92610168 -891.78582764 87.73410034 2.000000 2.000000
-153.99899292 -769.24908447 63.31740189 2.000000 2.000000
-171.02949524 -686.23620605 73.44779968 2.000000 2.000000
-147.98069763 -792.38610840 75.33080292 2.000000 2.000000
-52.52989960 -803.49511719 149.92730713 2.000000 2.000000
-50.50889969 -753.21740723 27.96780014 1.000000 1.000000
-134.88119507 -809.21032715 43.66329956 2.000000 2.000000
-48.18299866 -745.31451416 11.84389973 1.000000 1.000000
-71.91390228 -917.72082520 28.58460045 2.000000 2.000000
-132.64610291 -814.42749023 31.90640068 2.000000 2.000000
-46.11759949 -911.74047852 20.39609909 2.000000 2.000000
-148.64390564 -787.09991455 77.68409729 2.000000 2.000000
-150.45260620 -776.89752197 74.16519928 2.000000 2.000000
-89.94499969 -895.88507080 75.85780334 2.000000 2.000000
-107.86609650 -887.03027344 69.68039703 2.000000 2.000000
-149.29179382 -773.73602295 58.72349930 2.000000 2.000000
-141.11120605 -753.66748047 80.73690033 2.000000 2.000000
-109.50730133 -825.09197998 111.51869965 2.000000 2.000000
-81.66600037 -822.21057129 145.14779663 2.000000 2.000000
-51.09180069 -819.20629883 126.88400269 2.000000 2.000000
-127.50740051 -706.24353027 110.53780365 2.000000 2.000000
-68.48989868 -844.71972656 125.34559631 2.000000 2.000000
-75.21219635 -825.98297119 102.64779663 1.000000 1.000000
-95.83239746 -818.25512695 136.52580261 2.000000 2.000000
-76.27159882 -823.86157227 143.98539734 2.000000 2.000000
-134.96080017 -808.06762695 60.91339874 2.000000 2.000000
-140.13110352 -818.97528076 69.18920135 2.000000 2.000000
-128.65879822 -815.41381836 26.88039970 2.000000 2.000000
-48.31710052 -911.60137939 21.02989960 2.000000 2.000000
-130.89050293 -729.33959961 100.42250061 2.000000 2.000000
-53.55799866 -893.51831055 84.57340240 2.000000 2.000000
-132.47509766 -798.38378906 25.47760010 2.000000 2.000000
-156.82369995 -759.62780762 67.29170227 2.000000 2.000000
-59.04959869 -850.16778564 97.86789703 2.000000 2.000000
-149.31939697 -741.66607666 83.10590363 2.000000 2.000000
-133.27319336 -814.60400391 42.53269958 2.000000 2.000000
-42.58369827 -911.25958252 69.49369812 2.000000 2.000000
-120.99880219 -807.38677979 2.49449992 2.000000 2.000000
-65.96520233 -909.93591309 36.18740082 2.000000 2.000000
-163.96260071 -697.39031982 79.33869934 2.000000 2.000000
-36.57360077 -904.67156982 69.81220245 2.000000 2.000000
-134.51980591 -702.22888184 105.95739746 2.000000 2.000000
-96.69840240 -863.56127930 94.04160309 2.000000 2.000000
-154.79280090 -699.27258301 87.47920227 2.000000 2.000000
-83.54409790 -903.57818604 56.02989960 2.000000 2.000000
-48.10079956 -818.55651855 120.15599823 2.000000 2.000000
-149.98599243 -785.29321289 55.03490067 2.000000 2.000000
-171.12770081 -707.66357422 68.58390045 2.000000 2.000000
-133.26269531 -823.62011719 54.23130035 2.000000 2.000000
-37.43889999 -797.13610840 116.64050293 2.000000 2.000000
-111.59950256 -838.94891357 89.11109924 2.000000 2.000000
-139.44090271 -786.63848877 109.42269897 2.000000 2.000000
-111.29170227 -834.99542236 60.84909821 2.000000 2.000000
-128.30389404 -830.86297607 57.13389969 2.000000 2.000000
-50.47600174 -818.02288818 127.16190338 2.000000 2.000000
-83.81980133 -813.02642822 137.90539551 1.000000 1.000000
-71.70390320 -880.90972900 92.71119690 2.000000 2.000000
-115.58450317 -875.25067139 83.45870209 2.000000 2.000000
-80.51869965 -817.29931641 143.63519287 2.000000 2.000000
-147.72599792 -751.25329590 77.24680328 2.000000 2.000000
-150.80650330 -795.50567627 52.39250183 2.000000 2.000000
-160.44299316 -721.51550293 76.79560089 2.000000 2.000000
-143.46200562 -771.11242676 100.03769684 2.000000 2.000000
-83.69560242 -763.27227783 89.33110046 1.000000 1.000000
-145.58689880 -801.00012207 70.15460205 2.000000 2.000000
-134.67720032 -715.63507080 103.95570374 2.000000 2.000000
-69.39810181 -918.49060059 29.35639954 2.000000 2.000000
-66.89720154 -775.36157227 84.30549622 1.000000 1.000000
-122.94200134 -835.87548828 80.99269867 2.000000 2.000000
-139.46479797 -806.24548340 90.97440338 2.000000 2.000000
-41.88330078 -804.29742432 113.84539795 2.000000 2.000000
-65.89640045 -874.21478271 99.57679749 2.000000 2.000000
-133.95689392 -709.46612549 105.29830170 2.000000 2.000000
-135.38670349 -814.74761963 49.94250107 2.000000 2.000000
-89.07450104 -912.95892334 26.63389969 2.000000 2.000000
-134.75439453 -809.52539063 43.22349930 2.000000 2.000000
-43.22600174 -803.59899902 138.00500488 2.000000 2.000000
-128.93800354 -707.27807617 109.21920013 2.000000 2.000000
-40.84550095 -800.96899414 112.18219757 2.000000 2.000000
-92.64179993 -910.89538574 31.17880058 2.000000 2.000000
-145.70350647 -743.93408203 82.02169800 2.000000 2.000000
-66.58159637 -826.32397461 141.23779297 2.000000 2.000000
-124.61340332 -810.37658691 8.95450020 2.000000 2.000000
-43.62139893 -792.81182861 148.64660645 2.000000 2.000000
-34.45780182 -895.34881592 78.09429932 2.000000 2.000000
-127.63059998 -830.88720703 57.20009995 2.000000 2.000000
-135.33529663 -820.12371826 50.16669846 2.000000 2.000000
-145.00349426 -797.45697021 72.49520111 2.000000 2.000000
-106.58750153 -848.18292236 93.16950226 2.000000 2.000000
-48.72430038 -807.27551270 139.34010315 2.000000 2.000000
-186.83099365 -685.55047607 60.12500000 2.000000 2.000000
-142.30709839 -802.08502197 75.17130280 2.000000 2.000000
-132.83900452 -806.10571289 33.20439911 2.000000 2.000000
-114.83380127 -856.74102783 82.04830170 2.000000 2.000000
-75.91660309 -813.41992188 144.29640198 1.000000 1.000000
-45.24900055 -915.35577393 13.79599953 2.000000 2.000000
-132.62759399 -825.35418701 53.00080109 2.000000 2.000000
-131.60859680 -816.68328857 101.68779755 2.000000 2.000000
-65.17700195 -886.38452148 90.39739990 2.000000 2.000000
-127.36630249 -736.86950684 93.68199921 1.000000 1.000000
-42.69459915 -911.49957275 21.15189934 2.000000 2.000000
-128.90629578 -816.73468018 101.63849640 2.000000 2.000000
-124.98049927 -821.29638672 110.30979919 2.000000 2.000000
-165.85830688 -716.50170898 73.51820374 2.000000 2.000000
-147.96699524 -787.92272949 70.53540039 2.000000 2.000000
-115.43990326 -743.63769531 93.34130096 1.000000 1.000000
-125.34609985 -814.10662842 17.34040070 2.000000 2.000000
-108.15480042 -843.23730469 96.50060272 2.000000 2.000000
-64.85639954 -771.44207764 78.48919678 1.000000 1.000000
-47.09659958 -817.53497314 116.53569794 2.000000 2.000000
-41.90660095 -879.05249023 108.42189789 2.000000 2.000000
-57.21049881 -885.61431885 89.98650360 2.000000 2.000000
-100.31020355 -829.91778564 132.17390442 2.000000 2.000000
-149.06019592 -787.51428223 58.86149979 2.000000 2.000000
-149.31260681 -777.74487305 62.68880081 2.000000 2.000000
-107.73519897 -837.36682129 58.20449829 2.000000 2.000000
-142.40029907 -803.15362549 83.50930023 2.000000 2.000000
-139.62759399 -758.22711182 80.25099945 2.000000 2.000000
-64.59449768 -876.33068848 97.54879761 2.000000 2.000000
-45.30360031 -811.12548828 122.97869873 2.000000 2.000000
-160.16909790 -720.71917725 77.55460358 2.000000 2.000000
-173.72999573 -689.59130859 68.23809814 2.000000 2.000000
-76.76059723 -836.02117920 100.56839752 1.000000 1.000000
-133.80189514 -820.22229004 54.37599945 2.000000 2.000000
-157.27499390 -690.96582031 87.31649780 2.000000 2.000000
-45.92900085 -816.67431641 106.92759705 2.000000 2.000000
-98.98190308 -884.43627930 82.35109711 2.000000 2.000000
-149.76159668 -779.13378906 74.40730286 2.000000 2.000000
-124.34269714 -809.21191406 7.87869978 2.000000 2.000000
-66.42500305 -811.44647217 150.35899353 2.000000 2.000000
-78.66619873 -890.81872559 76.27680206 1.000000 1.000000
-171.76229858 -764.88568115 57.69110107 2.000000 2.000000
-140.51130676 -806.25720215 76.54499817 2.000000 2.000000
-132.08219910 -796.86840820 23.34600067 2.000000 2.000000
-53.55099869 -842.22399902 97.83409882 2.000000 2.000000
-158.87879944 -763.11877441 64.08540344 2.000000 2.000000
-135.53309631 -802.52447510 39.25329971 2.000000 2.000000
-72.76689911 -795.14288330 102.98609924 1.000000 1.000000
-116.80909729 -835.18591309 47.67770004 2.000000 2.000000
-141.27430725 -821.30603027 64.76789856 2.000000 2.000000
-55.42509842 -801.40332031 151.77349854 2.000000 2.000000
-140.63890076 -816.68737793 71.17279816 2.000000 2.000000
-46.62329865 -837.68481445 95.55879974 2.000000 2.000000
-88.52839661 -910.46411133 31.98769951 2.000000 2.000000
-135.08770752 -807.97021484 60.25030136 2.000000 2.000000
-77.67859650 -861.58691406 94.87149811 1.000000 1.000000
-150.42539978 -783.25262451 53.17240143 2.000000 2.000000
-65.14559937 -772.71881104 78.63279724 1.000000 1.000000
-62.87829971 -830.54388428 140.17460632 2.000000 2.000000
-150.84410095 -791.89318848 55.61940002 2.000000 2.000000
-79.24040222 -817.31927490 144.63720703 2.000000 2.000000
-135.43009949 -816.49102783 50.50180054 2.000000 2.000000
-75.43440247 -825.09417725 143.94630432 2.000000 2.000000
-148.47259521 -785.30297852 65.50080109 2.000000 2.000000
-178.23629761 -695.25329590 65.11640167 2.000000 2.000000
-127.47850037 -819.03717041 108.10369873 2.000000 2.000000
-95.48249817 -910.60278320 36.52939987 2.000000 2.000000
-143.30569458 -805.38867188 73.38040161 2.000000 2.000000
-152.91070557 -700.53039551 89.33630371 2.000000 2.000000
-46.47560120 -809.97558594 132.61839294 2.000000 2.000000
-64.59300232 -823.92480469 141.86489868 2.000000 2.000000
-128.42269897 -823.06188965 99.57890320 2.000000 2.000000
-89.62259674 -906.98907471 53.85760117 2.000000 2.000000
-101.14769745 -889.05798340 74.22579956 2.000000 2.000000
-75.57309723 -828.52581787 143.01939392 2.000000 2.000000
-133.87409973 -814.68811035 42.70819855 2.000000 2.000000
-49.77199936 -788.81768799 151.29200745 2.000000 2.000000
-60.21060181 -910.74151611 26.85680008 2.000000 2.000000
-170.89759827 -693.49627686 72.15229797 2.000000 2.000000
-147.92100525 -804.97662354 64.43419647 2.000000 2.000000
-133.30999756 -804.92089844 34.30910110 2.000000 2.000000
-143.77330017 -805.34802246 74.26699829 2.000000 2.000000
-133.56640625 -827.34069824 90.68219757 2.000000 2.000000
-112.75029755 -876.22277832 84.90100098 2.000000 2.000000
-43.48910141 -784.69470215 148.75129700 2.000000 2.000000
-135.51809692 -819.44909668 52.46009827 2.000000 2.000000
-89.19619751 -913.88458252 25.12120056 2.000000 2.000000
-48.20719910 -804.45800781 86.65419769 2.000000 2.000000
-107.65249634 -877.41827393 86.10849762 2.000000 2.000000
-129.07150269 -823.83367920 36.93140030 2.000000 2.000000
-42.55239868 -851.21142578 89.18409729 2.000000 2.000000
-91.51300049 -802.87457275 124.43750000 1.000000 1.000000
-112.91989899 -852.69580078 86.07230377 2.000000 2.000000
-42.73229980 -834.98059082 96.26499939 2.000000 2.000000
-33.87160110 -894.66711426 79.10359955 2.000000 2.000000
-92.82009888 -913.36462402 43.40200043 2.000000 2.000000
-36.43119812 -836.77392578 90.69110107 2.000000 2.000000
-83.31770325 -805.86499023 134.42340088 1.000000 1.000000
-150.17320251 -776.88018799 46.35589981 2.000000 2.000000
-59.84680176 -809.71478271 148.32710266 2.000000 2.000000
-139.70069885 -791.82080078 104.81300354 2.000000 2.000000
-127.71119690 -711.49230957 109.83540344 2.000000 2.000000
-73.54660034 -888.68298340 91.44390106 2.000000 2.000000
-38.75230026 -907.16107178 69.46420288 2.000000 2.000000
-113.25289917 -833.87432861 60.36520004 2.000000 2.000000
-146.73590088 -795.06579590 73.70890045 2.000000 2.000000
-95.22699738 -881.52001953 96.82530212 2.000000 2.000000
-116.83580017 -835.36041260 48.35789871 2.000000 2.000000
-69.54570007 -783.38330078 103.29419708 1.000000 1.000000
-47.90110016 -889.04852295 86.27649689 2.000000 2.000000
-113.48709869 -837.61151123 93.42050171 2.000000 2.000000
-133.33889771 -807.91418457 32.25429916 2.000000 2.000000
-148.74090576 -780.18707275 64.29429626 2.000000 2.000000
-128.15570068 -831.99792480 90.25189972 2.000000 2.000000
-67.40489960 -817.77142334 146.47959900 2.000000 2.000000
-67.61160278 -799.39422607 155.90750122 2.000000 2.000000
-149.34800720 -786.36999512 58.93090057 2.000000 2.000000
-43.98229980 -806.46087646 132.76440430 2.000000 2.000000
-63.08539963 -911.47119141 27.94759941 2.000000 2.000000
-141.08749390 -780.41497803 105.77749634 2.000000 2.000000
-77.70880127 -928.91699219 1.95009995 2.000000 2.000000
-128.08099365 -684.18658447 107.94229889 2.000000 2.000000
-168.34660339 -766.21667480 58.48809814 2.000000 2.000000
-146.71380615 -798.59197998 70.24949646 2.000000 2.000000
-121.18450165 -794.88342285 116.80519867 2.000000 2.000000
-125.96749878 -877.19091797 66.83979797 2.000000 2.000000
-55.99280167 -822.91870117 137.03649902 2.000000 2.000000
-45.60770035 -898.48168945 79.06649780 2.000000 2.000000
-74.49880219 -813.53149414 104.18350220 1.000000 1.000000
-146.94779968 -790.76068115 94.76650238 2.000000 2.000000
-46.91889954 -794.81750488 150.00289917 2.000000 2.000000
-46.67119980 -818.80126953 111.24230194 2.000000 2.000000
-38.64279938 -906.59020996 69.93689728 2.000000 2.000000
-130.00219727 -819.96142578 41.92879868 2.000000 2.000000
-146.76229858 -754.67590332 76.78279877 2.000000 2.000000
-131.10240173 -821.62542725 44.47980118 2.000000 2.000000
-149.08970642 -794.51599121 60.54470062 2.000000 2.000000
-75.87249756 -838.42578125 101.43890381 1.000000 1.000000
-61.71229935 -818.78759766 145.49040222 2.000000 2.000000
-116.08270264 -850.47412109 83.97689819 2.000000 2.000000
-44.99549866 -808.79022217 97.92250061 2.000000 2.000000
-147.64370728 -798.95507813 67.97160339 2.000000 2.000000
-80.07129669 -907.37512207 43.22489929 2.000000 2.000000
-132.25599670 -805.45532227 35.49679947 2.000000 2.000000
-34.89350128 -906.68322754 67.14779663 2.000000 2.000000
-76.33840179 -815.34851074 143.36059570 2.000000 2.000000
-124.70600128 -699.39642334 111.24900055 2.000000 2.000000
-134.21560669 -818.79968262 79.52490234 2.000000 2.000000
-50.51470184 -908.82690430 31.42659950 2.000000 2.000000
-122.98390198 -796.53381348 4.35220003 2.000000 2.000000
-43.61880112 -743.32708740 4.53609991 1.000000 1.000000
-65.88739777 -842.98400879 103.69670105 2.000000 2.000000
-151.17370605 -699.31091309 92.27349854 2.000000 2.000000
-135.63360596 -803.61981201 112.39150238 2.000000 2.000000
-106.63279724 -921.44061279 11.49149990 2.000000 2.000000
-86.31430054 -906.74822998 44.30030060 2.000000 2.000000
-52.90499878 -820.54809570 133.70950317 2.000000 2.000000
-73.01470184 -925.37170410 10.36649990 2.000000 2.000000
-145.28930664 -809.61450195 68.09030151 2.000000 2.000000
-52.55279922 -909.68988037 49.04359818 2.000000 2.000000
-148.12840271 -754.98889160 74.94750214 2.000000 2.000000
-119.21730042 -806.59912109 108.28099823 1.000000 1.000000
-143.22970581 -742.02362061 84.46949768 2.000000 2.000000
-138.26089478 -800.82257080 41.32139969 2.000000 2.000000
-162.34460449 -749.20312500 73.10379791 2.000000 2.000000
-149.27569580 -778.01037598 60.18989944 2.000000 2.000000
-78.57800293 -874.85638428 89.66950226 1.000000 1.000000
-45.54859924 -788.43927002 149.61129761 2.000000 2.000000
-80.30390167 -909.77001953 36.47349930 2.000000 2.000000
-128.29319763 -828.20501709 64.83799744 2.000000 2.000000
-96.35160065 -890.38000488 76.84390259 2.000000 2.000000
-151.76519775 -747.87548828 77.02880096 2.000000 2.000000
-106.70909882 -746.90002441 94.82920074 1.000000 1.000000
-45.27600098 -908.29370117 36.58909988 2.000000 2.000000
-132.90269470 -821.50610352 57.48799896 2.000000 2.000000
-127.57279968 -728.37127686 104.86039734 2.000000 2.000000
-105.12280273 -801.84741211 114.80570221 1.000000 1.000000
-101.59519958 -899.08197021 64.98940277 2.000000 2.000000
-175.14840698 -704.84967041 64.60590363 2.000000 2.000000
-68.27290344 -877.96166992 93.85990143 2.000000 2.000000
-135.38639832 -822.61102295 68.94409943 2.000000 2.000000
-123.49690247 -823.35211182 106.43240356 2.000000 2.000000
-141.79960632 -800.48120117 46.44430161 2.000000 2.000000
-135.24479675 -807.74902344 59.32049942 2.000000 2.000000
-61.72869873 -804.05249023 152.86399841 2.000000 2.000000
-148.71820068 -779.29150391 64.42630005 2.000000 2.000000
-37.22190094 -838.83038330 88.43289948 2.000000 2.000000
-65.01969910 -772.36669922 77.20549774 1.000000 1.000000
-132.61779785 -819.78607178 56.99850082 2.000000 2.000000
-148.22120667 -799.94628906 66.10540009 2.000000 2.000000
-51.60960007 -909.96118164 26.57369995 2.000000 2.000000
-150.76539612 -772.58117676 44.91749954 2.000000 2.000000
-131.15899658 -716.49768066 106.58200073 2.000000 2.000000
-62.17770004 -911.14947510 28.00950050 2.000000 2.000000
-139.79440308 -822.31561279 64.99079895 2.000000 2.000000
-109.23639679 -837.69061279 55.65719986 2.000000 2.000000
-67.26409912 -840.83978271 104.24729919 2.000000 2.000000
-95.47599792 -852.14758301 98.35510254 2.000000 2.000000
-25.94339943 -907.85571289 62.94699860 2.000000 2.000000
-47.21920013 -748.21417236 16.99510002 1.000000 1.000000
-169.50590515 -701.65557861 72.91169739 2.000000 2.000000
-73.51940155 -828.28881836 100.98310089 1.000000 1.000000
-149.37109375 -775.00677490 65.43039703 2.000000 2.000000
-128.98129272 -826.92877197 97.88490295 2.000000 2.000000
-171.54620361 -713.37268066 68.58070374 2.000000 2.000000
-132.28469849 -821.90667725 98.67970276 2.000000 2.000000
